# .PCD v.7 - Point Cloud Data file format
VERSION .7
FIELDS x y z
SIZE 4 4 4
TYPE F F F
COUNT 1 1 1
WIDTH 1675
HEIGHT 1
VIEWPOINT 0 0 0 1 0 0 0
POINTS 1675
DATA ascii
5.204746 1.354068 -2.808784
5.028905 1.274756 -3.379095
5.290174 1.371757 -2.486422
5.36269 1.409151 -2.276241
5.398746 1.386549 -2.212532
4.189065 1.653958 -3.146164
3.562268 1.702621 -2.780891
5.527607 1.365182 -1.744494
5.45696 1.672083 -1.904481
5.298382 1.571557 -2.454644
5.494277 1.589204 -1.819345
5.120793 1.323251 -3.099221
5.117394 1.243492 -3.149115
5.433487 1.641235 -1.98225
5.497484 1.589822 -1.818812
5.043094 1.325782 -3.361297
3.370752 1.335817 -3.524641
5.76316 0.5313321 -1.320489
5.685672 1.46336 -1.343165
5.716657 1.26762 -1.264885
5.745977 1.284348 -1.260979
5.761824 1.121922 -1.189595
5.799933 0.4521641 -1.23689
5.7184 1.274892 -1.265103
5.804288 0.7646467 -1.123416
5.878784 0.6535446 -1.110973
5.761692 1.00939 -1.12725
5.711443 1.010455 -1.127566
5.751994 0.6391247 -1.129519
5.784823 0.8582441 -1.130743
5.742425 0.763197 -1.131147
5.766451 0.8566555 -1.135131
5.762479 1.01034 -1.130467
5.784441 1.134982 -1.049311
5.788078 0.8580971 -1.129711
5.849833 0.4590455 -1.222134
5.791391 1.132902 -1.045916
5.791627 1.13374 -1.046301
5.773967 1.12992 -1.045718
5.850645 0.7842848 -0.9325483
5.850728 0.7834207 -0.9312766
5.803477 1.138946 -1.041131
5.794061 1.133726 -1.041915
5.405932 0.4761005 0.5682194
5.902017 1.202755 -0.6800679
5.913331 1.202536 -0.6681023
5.93944 1.213025 -0.6515998
5.900407 1.203008 -0.6810329
5.897429 1.199601 -0.6708685
5.822121 1.081234 -0.5362856
5.85582 1.09228 -0.5270447
5.820572 1.078563 -0.5305749
5.859257 1.094423 -0.5269167
3.053328 1.463223 -3.369042
4.182402 2.726311 -4.694197
5.348865 1.885635 -2.212758
5.208203 1.880888 -2.687937
5.519541 0.7524527 -1.943088
5.378589 1.063277 -2.356378
5.426852 0.7578431 -2.254442
5.201834 1.866099 -2.681839
5.205396 1.888365 -2.68623
5.203078 1.87771 -2.686092
5.438203 1.913824 -1.9423
5.377745 1.066059 -2.351347
5.427093 1.897812 -1.941989
5.439037 1.919945 -1.972115
5.20718 2.111083 -2.620865
5.091169 2.365271 -2.78737
5.322497 2.294518 -2.350005
5.202362 2.104492 -2.622027
5.212306 2.155724 -2.662541
5.270671 2.263113 -2.372507
5.263022 2.233189 -2.35714
5.2083 2.204882 -2.56039
5.098505 2.375406 -2.788332
5.095719 2.369653 -2.791998
4.749583 1.800201 -1.490363
4.467054 2.082401 -2.173508
5.29346 1.55263 -2.439977
3.55813 1.661099 -3.136511
5.492267 1.890956 -1.890241
3.207952 1.536399 -2.816603
5.101747 1.074276 -3.244442
5.103229 1.076125 -3.2448
5.176068 1.34354 -2.888648
5.395175 1.812441 -2.122575
3.000636 2.705549 -2.844341
2.888119 2.836954 -2.962533
5.178645 1.34341 -2.88815
5.404771 1.823344 -2.12143
5.044497 1.271045 -3.397005
4.100708 1.624875 -3.129034
5.133589 1.253896 -3.166296
5.128547 1.247755 -3.161904
5.119956 1.245175 -3.148916
3.992382 2.273 -2.414257
5.073929 1.405813 -3.234779
4.499349 1.703398 -1.320149
5.045108 1.45369 -3.210939
3.96671 2.287303 -2.420084
5.045572 1.32456 -3.362946
4.094117 2.287672 -2.435859
5.295145 1.93619 -2.35304
2.867401 2.773193 -2.931087
5.054834 1.212131 -3.468094
5.152528 1.628342 -2.905727
5.317859 0.8366089 -2.646284
2.515464 2.69482 -2.718399
3.54667 1.745893 -2.798465
5.3649 0.9593178 -2.505605
5.28328 0.8742264 -2.672978
4.248756 2.146406 -2.262895
3.50432 1.604594 -3.015267
5.296779 0.7853566 -2.744296
5.569382 1.532779 -1.680545
3.084321 2.512478 -2.554468
5.405025 1.344473 -2.162972
3.463721 1.670497 -3.116116
3.578099 1.623792 -2.949729
4.280228 2.166428 -2.27197
5.112538 1.325913 -3.094911
3.54101 1.587362 -2.952339
3.564264 1.56805 -2.963892
3.968991 2.284837 -2.419706
2.759071 2.752365 -2.965639
3.310218 1.29456 -3.564573
3.07379 2.487682 -2.549881
3.152674 1.392293 -3.333224
5.113245 1.244984 -3.143358
3.131434 1.644354 -2.619692
5.304901 1.378237 -2.504008
3.35007 1.279466 -3.594779
3.087891 1.536099 -2.814906
4.397815 2.086619 -2.142743
2.517827 2.708079 -2.722185
5.31468 1.700602 -2.372474
4.211108 2.295913 -2.471169
4.200388 2.305665 -2.479618
3.122237 1.639539 -2.616746
4.490203 1.695604 -1.317625
4.999075 2.172225 -2.163076
4.468151 2.328118 -2.571033
4.581659 2.320403 -2.603167
3.530816 1.611124 -2.981877
5.196964 2.104688 -2.614116
4.954348 1.272301 -3.62608
5.116887 1.330151 -3.096045
3.107125 1.566275 -2.841495
5.199911 2.104706 -2.621192
5.077913 1.461289 -3.232075
4.977662 1.332539 -3.662804
5.201239 2.103494 -2.615767
4.918238 1.497436 -3.711362
5.216983 1.888234 -2.693995
3.119954 2.526877 -2.767426
2.756108 2.741892 -2.966191
5.048039 1.501807 -3.316975
4.086417 2.382456 -2.44879
4.010022 2.311871 -2.427205
5.118158 2.137384 -2.311895
2.629266 2.745819 -2.856615
5.069756 1.517856 -3.333783
4.102492 2.271595 -2.427521
3.075854 2.710546 -2.86275
4.966308 1.295745 -3.671917
3.38062 1.31653 -3.495722
3.366049 1.345214 -3.546601
5.291125 1.37891 -2.490925
3.518292 2.215122 -2.296288
3.375732 1.426663 -3.43643
3.528496 2.219676 -2.304795
3.389605 1.437339 -3.43526
3.008125 2.739423 -2.857866
3.530532 2.19744 -2.304543
3.530246 2.220444 -2.303118
3.329199 1.373157 -3.481068
3.463504 1.699186 -3.149366
5.139584 1.070583 -3.135236
4.390907 2.324912 -2.550827
3.350627 1.350654 -3.439462
4.987353 1.632008 -3.608108
5.088548 2.343753 -2.77696
4.902911 1.847734 -3.647597
4.911454 1.862046 -3.66747
4.907405 1.84856 -3.669899
4.920935 1.871796 -3.687407
4.634559 2.527983 -4.66301
3.929053 2.617579 -5.227137
4.018399 2.438432 -5.09723
3.945582 2.522565 -5.133469
4.051463 2.462295 -5.157901
3.931723 2.611293 -5.267835
4.030579 2.4439 -5.105315
4.047647 2.451157 -5.141922
4.037678 2.431937 -5.100266
2.099691 0.6187283 0.9406075
2.093026 0.6426328 1.056596
2.742115 0.628553 0.8755344
2.089772 0.6410091 1.071629
4.637914 0.8905178 0.1050452
1.567517 0.4618017 1.364853
1.555296 0.3890964 1.495561
1.655328 0.3563864 1.654854
1.644135 0.42734 1.493466
1.461902 0.310639 1.655591
1.792809 0.2798664 1.331761
1.762024 0.2782145 1.499159
1.74039 0.2773796 1.560398
2.067378 -1.686723 0.8606372
0.3320548 0.6936411 1.474036
5.198395 2.105191 -2.62322
5.185946 2.120536 -2.665392
5.178438 2.109757 -2.663613
5.21182 2.204556 -2.564629
5.055842 1.080386 -3.5264
4.866884 1.804978 -3.247405
5.060153 1.7212 -3.236203
5.111391 1.915623 -3.000182
5.089424 2.082436 -2.988195
3.197873 1.942754 -2.386509
3.480896 1.671766 -3.113467
4.889776 1.803748 -3.274325
5.000191 1.707333 -3.433847
4.932291 1.52475 -3.742384
5.007964 1.712493 -3.441039
4.998503 1.709186 -3.433309
5.013669 1.721823 -3.443808
5.105438 2.053605 -3.030729
5.087434 2.036071 -3.013101
5.102628 2.11358 -2.982224
4.937312 1.518846 -3.753188
4.93901 1.602943 -3.694429
5.097563 2.096579 -2.983245
4.924829 1.702823 -3.704383
4.916598 1.854823 -3.667408
3.221067 2.020348 -2.370293
2.286051 3.28054 -3.680176
2.129535 3.296861 -3.853515
4.810039 2.291731 -4.155288
4.814415 2.289109 -4.157935
4.814407 2.290159 -4.157661
4.829006 2.308307 -4.179732
4.085805 2.812182 -4.960087
4.640004 2.548686 -4.676681
4.235003 2.33204 -4.833735
3.055477 1.927515 -2.922619
4.267885 2.296913 -5.829657
4.274422 2.304932 -5.75152
2.67347 2.740602 -2.848536
4.439173 1.690555 -3.233341
5.298505 2.229779 -2.318002
4.96418 1.285283 -3.6654
4.832074 1.703299 -3.324131
4.846671 1.789393 -3.224809
4.864125 1.805484 -3.243131
4.575386 2.294905 -2.594152
5.116047 1.871729 -2.975991
5.205009 2.10659 -2.624707
5.051761 1.715622 -3.22964
5.207443 2.200381 -2.558166
4.84553 1.716304 -3.334623
5.102072 1.872455 -3.16403
4.958473 1.619359 -3.518771
5.154021 2.197155 -2.764088
4.932384 1.527359 -3.731563
5.050599 2.347166 -2.762336
4.923716 1.703869 -3.705142
4.900948 1.841939 -3.656641
4.664247 1.867198 -1.564857
4.498352 1.705566 -1.319853
4.754047 1.792461 -1.474729
4.978942 1.192917 -3.741227
5.010256 1.407107 -3.54074
3.480724 1.679326 -3.113545
3.731956 3.169412 -5.563734
4.739472 1.700365 -3.383745
3.955677 3.331193 -4.040476
4.211651 2.265231 -4.780592
4.745864 1.70673 -3.39033
4.718009 1.750334 -3.474802
4.953279 1.606194 -3.535111
4.854171 1.281685 -3.886533
4.224568 3.015522 -4.417119
5.015746 1.757388 -3.738373
4.729741 2.621771 -4.182854
4.89341 1.251678 -3.946258
4.898517 1.272979 -3.830286
4.744546 2.647602 -4.160394
4.819753 2.289956 -4.164032
4.833633 2.125955 -4.229677
4.937723 1.062093 -3.874557
4.908739 1.273558 -3.829782
4.811918 2.457543 -3.961711
4.811003 2.311998 -4.147668
4.752795 1.77742 -3.505876
4.928552 1.125587 -3.843031
4.905089 1.50185 -3.816673
4.792203 2.507591 -4.03519
4.781607 2.723096 -4.023703
4.819337 2.293606 -4.159559
4.774708 2.525699 -4.061605
4.752032 2.722728 -4.046183
4.755475 1.767609 -3.505635
4.961936 1.130296 -3.757082
4.755521 2.719649 -4.032279
4.802995 2.514209 -4.029594
4.811842 2.731082 -3.882872
4.764304 1.773385 -3.500755
4.767979 2.589537 -4.076398
4.761831 1.772702 -3.500084
4.939691 1.608528 -3.819478
4.9307 1.562886 -3.73619
4.830966 2.452476 -3.94587
3.05269 2.657857 -2.835727
4.169593 2.061291 -2.108871
4.358906 2.075218 -1.886768
4.642356 1.534044 -1.085588
5.354681 0.7614432 -2.509038
4.413143 2.103237 -2.141643
5.29644 0.8753636 -2.66792
4.649392 1.635611 -1.239779
5.44356 1.115743 -2.101445
5.446033 1.119476 -2.10072
5.445071 1.130355 -2.092412
5.265143 0.8121325 -2.83519
5.28091 0.8733974 -2.669699
5.261956 0.8159263 -2.829571
4.607974 1.533311 -1.124332
4.753671 1.63886 -1.149993
4.206072 2.268772 -4.777036
5.492705 1.382361 -1.883644
5.260122 0.8172697 -2.82391
4.236649 3.253033 -4.194136
3.5833 1.747739 -2.798978
5.363707 1.12885 -2.277332
5.521122 1.394343 -1.874322
5.26707 1.150293 -2.627417
2.575538 2.915411 -4.382139
5.509686 1.396865 -1.871272
5.281444 1.151664 -2.627666
5.385623 1.348412 -2.167241
4.659783 1.436926 -0.9149088
5.279728 1.151714 -2.628759
4.64676 1.641695 -1.249675
4.634039 1.536109 -1.092509
5.206807 0.9071206 -2.9721
4.626521 1.533776 -1.105326
5.282136 1.292768 -2.545952
5.472848 1.544196 -1.91139
5.439443 1.537557 -1.913486
2.651994 3.313394 -3.786312
5.115774 1.070767 -3.252266
5.125751 1.253831 -3.121992
5.110401 1.249273 -3.134042
2.654912 3.306227 -3.813999
5.103636 1.064208 -3.246496
5.488126 1.690185 -1.91287
5.11746 1.030969 -3.270649
2.639502 3.284178 -3.764339
5.363713 1.410157 -2.272799
5.169564 1.248653 -2.937188
5.031998 1.076952 -3.512843
5.294973 1.476515 -2.433843
2.63998 3.610521 -3.997133
5.403434 1.657537 -2.14289
5.032775 1.07373 -3.515914
5.27703 1.301281 -2.655785
4.652765 1.438227 -0.910578
5.296056 1.337066 -2.517471
5.278854 1.659301 -2.374416
2.635352 3.179433 -3.736297
5.393708 1.653108 -2.152968
5.017062 1.196281 -3.43729
5.031679 1.076806 -3.51006
5.142885 1.330678 -3.015917
4.395496 3.176854 -4.285583
4.655785 2.578554 -4.147125
4.227322 3.241008 -4.189467
5.302177 1.860656 -1.972096
5.298476 1.665246 -2.383272
5.148772 1.34012 -3.018251
4.929682 1.177413 -3.699554
4.626102 2.53833 -4.680108
5.303135 1.677918 -2.367875
4.560381 1.545867 -1.083581
5.148935 1.624013 -2.903065
5.000433 1.309341 -3.691318
4.963471 1.293663 -3.671596
5.156944 1.631648 -2.906978
2.574511 0.7191128 0.6912546
4.97081 1.5942 -3.564573
4.979592 1.610364 -3.555078
4.995658 1.306212 -3.677132
5.212287 1.782888 -2.834123
5.192736 1.634684 -2.919672
5.06097 2.356413 -2.77501
5.248559 2.147317 -2.595092
4.637961 2.545353 -4.678676
3.69806 1.041223 -0.02686592
2.992383 0.8332318 0.4497102
3.221381 0.9164091 0.304305
4.79658 2.289732 -4.14972
4.732926 2.474895 -4.389723
3.681968 -0.7771013 -0.5933812
4.627937 2.544952 -4.671649
4.63464 2.545198 -4.675869
4.719953 2.620211 -4.174397
4.646094 2.577947 -4.154996
4.682065 2.564095 -4.694407
4.562353 3.298122 -4.234241
4.697527 2.606047 -4.159845
4.739073 2.630179 -4.189329
4.737466 2.626837 -4.186459
4.757021 2.469579 -4.235798
4.766842 2.472254 -4.230343
4.916073 2.139722 -3.915295
2.721493 0.7319307 0.6627597
4.727389 2.456231 -4.225753
4.731093 2.457944 -4.398437
4.590992 3.324556 -4.2408
4.7343 2.45348 -4.404997
4.789024 2.508811 -4.028527
4.755746 2.774659 -3.976305
4.809587 2.309005 -4.149582
4.890005 1.880598 -3.604491
4.720633 2.453264 -4.400495
4.886575 2.137469 -3.910975
4.663185 3.096065 -3.846156
4.704072 3.118013 -3.843926
4.836882 2.322939 -3.732699
4.900399 2.134172 -3.917123
4.791823 2.297397 -3.742342
4.827163 2.299324 -4.156229
4.781924 2.502922 -4.027682
4.356557 1.812303 -3.483282
4.761099 2.772178 -3.977706
4.859785 2.302454 -3.963892
4.761973 2.78258 -3.968202
5.092799 0.7070463 -3.410275
5.407866 0.344894 -2.505793
5.691461 -0.3381224 -1.788283
5.229059 0.6546284 -2.983129
5.229564 0.6518142 -2.985201
5.363268 0.3964218 -2.669233
5.401979 0.3416817 -2.506958
5.239838 0.6322105 -2.995408
5.100015 0.9945937 -3.288023
5.410946 0.5690313 -2.426947
5.78954 0.139713 -1.274052
5.788481 0.1305402 -1.277218
5.365004 0.6433598 -2.514944
5.54551 0.2407397 -2.060358
5.54727 0.231211 -2.065667
5.413161 0.5679789 -2.430306
5.052844 1.26888 -3.337825
5.550971 0.2275384 -2.065733
5.453658 0.4862487 -2.292968
5.416696 0.563516 -2.431244
5.452872 0.4861183 -2.292538
5.402066 0.5779878 -2.424409
5.440862 0.9017268 -2.224528
5.075675 1.409716 -3.236707
5.417918 0.3431434 -2.49702
5.060989 1.278304 -3.333532
4.999847 1.309336 -3.683443
5.802191 0.254857 -1.108311
5.725625 0.4848092 -1.350432
5.434258 1.093726 -2.106271
5.436716 0.9009877 -2.229137
5.623122 0.8632081 -1.683841
5.761416 0.4913768 -1.336714
5.581929 0.4747865 -1.906313
5.312333 1.38098 -2.498338
5.166434 1.633881 -2.905364
5.287641 1.317164 -2.525792
5.147284 1.393544 -3.004347
5.494668 1.37849 -1.878776
5.452556 1.093029 -2.099716
4.805311 2.511269 -4.030854
5.561078 1.09099 -1.760829
4.867131 2.307097 -3.973428
5.614355 0.9981239 -1.609013
5.496232 1.379708 -1.882085
5.505536 1.390629 -1.875506
5.435201 1.486209 -2.015654
5.648983 1.351094 -1.405869
5.818222 1.128608 -1.027919
5.530425 1.357229 -1.886651
5.690756 1.374562 -1.378112
5.651343 1.3562 -1.399828
5.795887 1.127285 -1.041643
5.888335 1.210955 -0.7058499
5.944536 1.223735 -0.6905181
5.244313 0.6540162 -2.983039
4.663908 3.094395 -3.840638
4.849669 2.294213 -3.97021
4.637455 3.147652 -3.95485
4.694825 3.041216 -4.034417
1.803438 0.6132865 0.8616246
5.244246 0.6478634 -2.981984
4.688788 2.863152 -3.334246
4.795465 2.700108 -3.85912
4.692372 3.10867 -3.848261
4.216568 2.764594 -4.513319
4.700459 2.807592 -3.285659
4.754561 2.764559 -3.975748
4.869135 2.409672 -3.8425
4.893877 2.433713 -3.861276
4.741408 2.891108 -3.366362
4.864452 2.418329 -3.842364
4.809539 2.896761 -3.378284
4.786491 2.739933 -3.095521
4.912909 2.433142 -3.854363
4.781571 2.879149 -3.37201
4.862885 2.423855 -3.842221
5.242183 0.8320699 -2.809697
5.323121 0.8298659 -2.750965
4.171414 1.790138 -3.424826
4.922763 2.149545 -3.900128
4.591548 3.313566 -4.237635
5.5774 0.2579119 -2.035244
5.081884 1.244161 -0.6149973
5.418308 0.5652944 -2.420964
5.430274 0.7582592 -2.301291
5.425551 0.7571539 -2.306
5.439344 0.9036097 -2.228309
5.329366 1.49327 -2.421359
3.695819 1.03778 -0.03471883
5.453402 1.122237 -2.095241
3.675442 -0.7701205 -0.604073
3.672124 -0.7706444 -0.6035025
5.282178 1.351078 -0.8255762
0.5974865 0.7899461 1.047099
3.680403 -0.7718311 -0.5982606
5.456079 1.12803 -2.08997
4.760084 2.599447 -4.096033
4.802022 2.381721 -4.098685
4.794596 2.373 -4.090239
4.885159 1.253579 -3.947471
4.756731 2.713831 -4.03039
4.793081 2.604203 -3.995414
0.5604834 0.8340582 0.9562596
5.712108 0.02132113 -1.625633
5.777619 0.1550206 -1.294676
5.801733 0.1514615 -1.27229
5.778186 1.044055 -0.5459642
5.822753 0.5059843 -1.289638
5.827834 1.06833 -0.513339
5.626027 1.355469 -1.416667
4.733979 3.206528 -3.959601
4.774636 2.734346 -3.906455
4.933634 1.512086 -3.746598
2.707816 0.718886 0.6196727
4.759586 2.460296 -4.228605
4.963576 1.30797 -3.660321
4.925325 1.880897 -3.608496
4.746465 2.63452 -4.18916
4.903185 1.883639 -3.616693
4.818605 2.483303 -3.948229
3.264273 0.7983966 0.5089555
4.997054 1.393567 -3.531038
4.870057 2.413412 -3.840173
4.902731 2.041188 -3.527086
5.0855 0.8399686 -3.387498
4.881968 2.096734 -3.583176
4.984745 1.39764 -3.531582
4.8538 2.296137 -3.968052
4.710565 2.875732 -3.33125
4.8546 2.54031 -3.758719
4.923998 2.110809 -3.555568
5.040157 1.275709 -3.393521
5.094936 0.9946027 -3.291296
4.880508 2.61595 -3.610931
5.099413 0.9930291 -3.294835
4.854366 2.539552 -3.757951
1.922902 0.6741343 0.8653187
5.10148 0.9915302 -3.294179
4.894093 2.630946 -3.601884
5.069195 1.458028 -3.235982
5.059437 1.460229 -3.23735
4.780858 2.735639 -3.101357
5.146974 1.245602 -3.112956
4.741629 2.64757 -4.160811
4.845294 2.512977 -3.867344
3.247283 0.9587749 0.2099735
0.3264933 0.6432294 1.470989
3.18715 0.9067198 0.3037687
4.921993 1.124089 -3.841633
2.695751 0.6557651 0.8503412
4.873515 2.409425 -3.841822
4.816177 2.321428 -3.731034
2.847884 0.672143 0.7215257
4.861068 2.546021 -3.758173
4.943842 1.190509 -3.728121
3.00034 0.5930787 0.7696088
4.864014 2.542518 -3.754844
3.832849 1.08692 -0.1349943
4.936588 1.405303 -3.705384
0.4746855 0.6173763 1.285935
5.847206 0.2462028 -1.090141
4.24209 0.9682984 0.01483051
4.263237 0.9184207 0.07286399
3.92721 0.809545 0.3803212
3.919018 0.7976057 0.3911512
5.855444 0.930214 -0.8931574
3.156135 0.7657148 0.5045058
5.922064 1.158416 -0.6456354
5.882181 1.156163 -0.659855
5.89542 1.08114 -0.4817066
5.911616 0.1568106 -0.5941521
5.576459 0.9845071 -0.2497962
5.626507 0.9950727 -0.2160281
5.627679 0.8970081 -0.1767729
5.084504 -0.8637996 -0.1020635
5.546382 -1.006584 -0.4214748
5.617078 0.8950671 -0.183249
5.893172 0.5873992 -0.5616137
5.08994 -0.2957858 0.1813125
2.834341 0.7523078 0.5924578
3.922796 1.07118 -0.1338503
2.836243 0.7545919 0.6143386
3.991244 1.071722 -0.1250965
3.155651 0.846759 0.4017483
3.964674 1.056891 -0.1151126
3.299628 0.854534 0.383641
3.094183 0.7630464 0.5686697
2.820469 0.6615088 0.6409618
3.098476 0.7648962 0.5723095
3.260986 0.795005 0.4785286
2.855871 0.6743282 0.75721
5.264177 1.352472 -0.8290538
3.244684 0.7890799 0.4636692
1.826309 0.567341 0.9265599
2.848199 0.6703583 0.779869
2.848896 0.6741382 0.7803748
2.880933 0.6841791 0.7540562
5.247276 1.301972 -0.7446095
2.870004 0.6874592 0.7469388
4.961206 2.105372 -3.573314
4.803113 2.746114 -3.089509
5.761837 0.1396084 -1.297012
3.182881 0.7357741 0.6061175
1.652913 0.4532035 1.06846
2.844529 0.6719739 0.777183
3.275146 0.7697161 0.5993681
2.508892 0.7309946 0.7074782
2.249205 0.6745218 0.6820534
4.396887 0.8931201 0.09422537
3.019834 0.7351276 0.8027769
4.150183 0.9965007 -0.02078237
3.085399 0.7543043 0.5784247
4.148597 0.9941883 -0.03068777
3.143758 0.8106571 0.4566073
5.282384 1.315519 -0.7273098
2.996681 0.5964208 0.7495078
2.845558 0.6648604 0.7558545
0.7573893 0.7096175 1.05863
4.28694 0.9685869 -0.001389713
2.994204 0.5948092 0.7432255
3.360721 0.7506879 0.5316968
3.006768 0.5828831 0.7438046
2.996339 0.5912468 0.7190812
4.161381 0.9701901 0.02711708
2.998173 0.5841621 0.7182202
2.980771 0.6304989 0.8140336
-1.556628 0.1844585 2.262681
-2.227006 -1.545114 1.38808
-2.411888 -0.445603 0.6313591
-2.243304 -1.402981 1.466551
0.3372338 0.433852 2.001807
-2.216418 -1.472724 1.426425
-2.423171 -0.4318906 0.6536126
1.726474 -0.4266586 1.86562
0.4222941 0.6239434 1.324179
0.98947 0.5799842 1.33671
0.8351862 0.5603321 1.341388
1.074792 0.5027136 1.474357
1.112209 0.4829054 1.51168
1.14301 0.4736077 1.442328
0.9831452 0.4698339 1.489208
1.153985 0.4740181 1.434094
0.9706606 0.4804092 1.504193
1.305303 0.4543323 1.387321
1.147715 0.4677636 1.36869
0.3087932 0.5259269 1.586173
1.307281 0.4467579 1.47736
6.124039 -0.3519628 -0.5227454
5.980501 0.42941 -0.3670252
5.027164 -0.5542055 0.03210366
5.13655 -0.8854477 -0.06914923
5.094932 -0.6084489 0.2403075
5.578127 -0.9021473 -0.3190326
5.096991 -0.2973556 0.1903783
5.602326 -0.7351521 -0.21226
4.938687 0.2848539 0.6585048
5.582228 -0.7932199 -0.2413046
5.099553 -0.6103423 0.03643252
5.142403 -0.8749828 -0.0750597
5.067811 0.4263201 0.6557363
5.060977 -0.2028354 0.5384568
5.020749 -0.5181458 0.05967597
5.950007 -0.4566566 -0.1702445
6.073999 0.7702802 -0.1368072
4.79654 -0.3698522 0.7033374
4.975999 0.2117965 0.467793
5.125761 -0.3492643 0.5859224
5.186914 0.4122235 0.8298978
5.031846 0.3102169 0.8663616
5.233901 0.4606209 0.6171577
5.144047 0.2976327 0.8612317
5.114528 0.3066535 0.8261646
5.111175 0.4172615 0.5906065
5.69446 -1.117675 0.1288848
2.055108 -1.662995 0.8668739
1.80241 0.2843066 1.35367
1.46935 0.256321 1.754423
1.747457 0.2753757 1.629583
1.934231 -1.731162 0.9430477
2.131533 -1.332197 1.083867
5.555932 -0.8940613 -0.3352888
2.222203 -1.572179 0.9310554
5.101016 -1.100212 -0.2126693
2.040767 -1.508553 1.075898
2.073621 -0.6677901 1.465415
2.139436 -1.191403 1.145744
5.320993 -0.5031154 -0.01572565
2.142127 -1.268228 1.125025
2.160915 -1.046528 1.26968
2.149324 -1.062375 1.298903
2.006133 -0.3817036 1.861385
2.964911 -0.5686082 1.135569
2.07969 -0.5420192 1.603163
2.085941 0.0278785 1.649311
2.165367 -0.9141653 1.408914
2.113759 -0.6826292 1.466203
2.159975 0.1026838 1.717024
2.142396 0.1306262 1.790695
0.6833686 -0.9683461 2.055396
2.023073 -0.3729933 1.767194
-1.078989 -0.8901972 2.648675
-1.080931 -0.7559608 2.676977
-2.166816 -0.5675418 1.661904
-1.089417 -0.7602868 2.68866
-1.057452 -1.003733 2.626082
-2.098577 -0.9087798 1.735337
-2.175454 -0.5597361 1.652216
-1.0194 -0.6893898 2.597547
-1.034349 -0.6271331 2.667175
-1.033175 -0.6222304 2.653732
-2.099477 -0.9169527 1.749436
-1.032242 -0.6995963 2.665828
-1.041788 -0.5413858 2.667619
-1.827014 0.2535569 1.970976
-1.080952 -0.7472976 2.648184
-1.038446 -0.7096735 2.706635
-1.02232 -0.5341682 2.598855
-1.059066 -0.2767546 2.69299
-2.144287 -0.7443209 1.70443
-2.148781 -0.9571195 1.653182
-1.053389 -0.3381189 2.700362
-2.238678 -1.071935 1.712107
-1.047264 -0.3285438 2.675192
-1.041618 -0.4754227 2.63121
-1.741494 0.204128 2.157282
-1.130983 -0.2815561 2.743227
-1.076767 -0.1497514 2.636635
-1.115363 -0.2652666 2.700273
0.2938159 0.4151912 1.930501
-2.056592 -0.5288861 1.903936
-1.092965 -0.1571381 2.741454
-2.164649 -0.7409148 1.87358
-2.162746 -0.5475305 1.926152
0.4166414 0.4605405 1.882059
-1.947239 0.1372984 2.178239
-1.901875 0.2874283 2.13938
-2.155988 -0.7923908 1.796453
-2.151953 -0.9293271 1.675994
-2.230677 -1.254254 1.613301
0.2517448 0.3606491 2.08797
0.2319621 0.2978641 2.09803
-1.931112 0.2951103 2.20436
-1.883051 0.120806 2.013941
0.2205741 0.3155089 2.196486
-1.882449 0.1225686 2.023809
-1.895644 0.1291281 2.048281
-2.075166 -1.522021 2.568812
-1.930395 0.1222199 2.229291
-1.937277 0.1514048 2.235378
-2.012054 -1.865891 2.308116
-1.940984 0.1337171 2.253808
-2.05307 -1.472885 2.171866
2.716812 -0.5842959 1.21221
2.730251 -0.6198839 1.307148
2.167355 -0.853158 1.520254
2.17075 -0.8879712 1.310612
2.143628 0.07103951 1.806836
1.720912 0.08678711 2.04519
2.091802 -0.5518825 1.642266
2.128007 -0.07012824 1.735803
2.090932 -0.5296898 1.565665
2.14761 -0.1414785 1.669134
2.72794 -0.6042558 1.258969
1.881902 -0.369527 1.822522
2.143538 -0.1423643 1.680844
2.195666 -0.6861264 1.583479
2.91225 -0.5074728 1.240055
2.094622 -0.5771182 1.72598
2.94827 -0.7123162 1.199346
2.938369 -0.6399295 1.065907
5.10155 0.2590649 0.6109446
2.179884 0.09522285 2.090483
1.755559 0.07855018 1.863334
2.206728 -0.4953468 1.531986
3.055275 0.1368214 1.479819
3.068913 0.1402954 1.545037
0.8130368 0.4994273 1.474864
0.8303306 0.4944214 1.439308
-1.049622 -0.2575537 2.72068
0.1767905 0.5508879 1.779004
0.2309492 0.5091179 1.639758
1.398702 0.4756078 1.485285
1.38759 0.4720372 1.460955
1.67868 0.4126056 1.393617
0.7892119 0.5076308 1.516007
2.051069 -1.44571 0.9799153
0.339537 0.5450231 1.388719
0.2068632 0.419199 1.777079
1.745319 0.2796206 1.713045
0.9099846 0.2875021 1.731809
1.483965 0.2534195 1.82138
-1.053251 -0.260047 2.7131
1.211506 0.3492626 1.643641
-1.53045 0.5100431 1.645162
0.6657009 0.3137945 1.663428
2.153545 0.1323345 1.86413
0.5424269 0.3216346 1.922811
0.3303027 0.5236717 1.563818
0.3221212 0.5277268 1.579632
0.2336316 0.5091853 1.6316
0.2152627 0.5168316 1.659091
1.099194 -0.1590391 1.767637
-1.119979 0.808038 1.256979
-2.608751 0.1534113 0.448988
-1.191814 0.8778635 1.163324
0.1904129 0.422431 1.772891
0.5419772 0.3342386 1.929513
-1.263716 0.8546144 1.231232
-1.143006 0.8191181 1.271319
-1.131305 0.8199347 1.264651
1.222541 -0.4510691 1.994992
-0.3912945 0.6012703 1.53643
-0.7429593 0.4764821 1.719348
-1.089992 0.7206796 1.43551
-0.8570811 0.6487595 1.360537
0.05609417 0.2538759 2.033711
-0.8145326 0.5589839 1.651603
0.07598852 0.2941416 1.994926
0.08670373 0.2999479 2.003283
-1.084391 0.7022928 1.458828
-0.7200681 0.4948761 1.737061
0.122168 0.2705119 2.059001
-0.9230224 0.6002646 1.597452
-0.765663 0.4886763 1.744634
-0.6949438 0.4892659 1.712915
-0.8267574 0.5633815 1.659385
-0.7231578 0.5002346 1.74932
-0.7895613 0.4714929 1.775189
-0.8036016 0.4980002 1.788277
0.1162798 -1.032589 2.384531
0.07877617 0.1000253 2.320099
0.3103602 -0.9776037 2.138361
0.1307686 0.2394311 2.052389
2.08839 -0.5428593 1.61699
2.097268 -0.7622336 1.697316
0.6474245 0.3165375 1.705677
1.059283 -0.8539568 1.819679
1.275188 0.1765478 1.868482
1.250452 0.1617361 1.964341
0.1282287 0.2627659 2.047031
0.9889471 0.08422224 2.147314
1.08133 -0.8408563 1.78457
0.8231546 0.1510751 2.130394
0.09995769 0.2325497 2.09732
1.664401 -0.7911643 1.763832
1.049652 0.2344613 1.876865
1.058038 -0.1771863 1.867963
1.657261 -0.8044957 1.807095
1.060729 -0.5734403 1.801736
0.2535758 0.1344852 1.948258
1.179129 -0.7430408 1.900617
1.171753 -0.7789242 1.928427
0.9237583 -0.2724489 1.817764
1.189614 0.05376095 2.102333
1.181731 0.05063546 2.149506
1.180159 0.04913164 2.124422
1.186105 -0.7311589 1.883597
1.175188 0.04818946 2.18816
0.06398665 0.1012067 2.327018
-0.6152552 -1.9284 1.572909
1.224936 -0.6197441 2.356474
0.1789056 0.1311859 2.233715
0.2675359 -1.14726 2.210004
1.186398 0.0509827 2.037939
1.167221 -0.7777746 1.941499
1.155354 0.03855613 2.17918
0.03712927 -1.065598 2.517268
0.2666151 -1.158504 2.191427
-0.8366176 -1.718068 2.083524
0.3434659 -0.9680558 2.062948
-0.7564463 -1.661554 1.996548
1.193798 0.06474067 2.056749
-0.706003 -0.06230916 2.629146
-0.9063572 -1.058818 2.469258
-1.080148 -0.9014037 2.651269
-1.169423 0.8692396 1.187958
-1.325017 0.3446583 1.890877
0.04058994 0.247358 1.865742
0.7287872 0.2290208 2.004733
-2.566925 0.3223086 0.1894663
-0.6833637 -1.047819 2.436728
-1.324842 0.3422175 1.884583
-0.06443562 0.09286217 2.339918
-1.202065 0.8806789 1.172697
-0.02984298 0.1064607 2.281127
0.4284484 -0.9859819 2.186736
0.06978478 0.09533004 2.340857
0.1240348 -1.041428 2.357687
-2.236888 -1.100827 1.076638
-2.430897 -1.154053 1.168641
-0.1361998 -1.006306 2.224094
-2.097787 -0.4780818 1.386461
-2.215529 -0.4938872 1.516614
-1.977463 -0.4602323 1.330206
-2.098822 -0.4634775 1.408732
-2.22524 -0.4961777 1.533582
-0.8227698 -1.791809 2.046601
-2.349314 -0.9261514 1.592395
-0.8471239 -1.813184 2.057651
-0.5665305 -1.114922 2.543691
-2.198778 -0.5749259 1.730471
-2.710177 -1.54147 1.710948
-1.952931 0.3112033 2.175975
-2.327076 -1.021731 1.815176
-1.211372 -0.9014043 2.746111
-2.044156 -1.098103 1.546657
-2.194696 0.009687643 2.197628
-1.044952 -0.8765082 2.603587
-1.94983 0.3068928 2.176712
-2.462233 -1.253613 1.765653
-0.921531 -0.09684981 2.591957
-2.128347 -0.1462597 2.045774
-2.296434 -0.1591586 2.166398
-1.082596 -0.178747 2.779088
-2.167217 -0.03596911 2.242052
-0.9293209 -0.665526 2.541999
-2.141342 -0.1640616 2.066354
-1.508127 -0.3002093 3.169112
-2.136158 0.152801 2.256518
-2.226769 -0.7545599 1.932568
0.5112062 0.2568212 1.7295
0.09893911 0.2312625 1.828359
0.6118056 0.27226 1.732353
0.5418227 0.2677291 1.774158
0.05261275 0.2408504 2.053807
0.7417731 0.293109 1.740533
0.3791072 0.1539081 1.983412
0.92697 0.3212097 1.792002
0.3723639 0.1795335 1.95998
1.099536 0.424702 2.004091
-0.0184795 0.1607376 2.048918
0.5437602 0.1329543 1.918305
0.5231955 0.1185849 2.273529
0.3478138 0.1555178 1.927364
0.07739756 0.1745683 2.093977
-0.03649082 0.1669662 2.156014
-2.462116 -0.04987048 0.7730654
-2.477928 -0.04538145 0.788539
-2.588679 0.0667737 0.6375315
-2.477887 -0.1643655 0.7642602
-1.312724 0.3267896 1.825916
-1.310691 0.3264733 1.826609
-1.909866 -0.4290402 1.147462
-0.8661799 -1.124896 2.662774
-2.205442 -1.399783 1.462476
-0.9035373 -1.187376 2.631742
0.09594593 0.3025099 1.778342
0.1059966 0.3150252 1.907586
-1.099697 -0.7536046 2.700415
-2.205693 -0.4963691 1.539547
-0.9887701 -1.028182 2.464299
-2.18256 -0.4829892 1.471473
-1.104726 -1.019414 2.737028
-1.05001 -0.9751344 2.538589
-1.059779 -0.9599831 2.507509
-1.07056 -0.8778886 2.641835
-2.196724 -1.141219 1.73656
-2.17569 0.9907657 0.9444277
-2.312122 -0.9062859 0.6591052
-2.580222 0.1535118 0.4315655
-2.558188 0.08510112 0.574167
-2.533081 0.08737265 0.5553615
-2.665124 0.1701616 0.4647352
-2.517316 0.0722921 0.5883248
-2.717415 0.2466738 0.3119841
-2.697462 -0.06621023 0.8980254
-2.593819 0.2255236 0.2990272
-2.477165 -0.08231761 0.8452294
-2.726217 0.2586899 0.3190036
-2.747317 0.05641762 0.6858855
-2.764558 0.254964 0.3498111
-2.640576 0.1803284 0.4218965
-2.524459 0.2108211 0.3028415
-2.468719 -0.08140722 0.8455624
-2.363347 -0.08932463 0.8175825
-2.162706 -1.106164 1.104054
-2.592345 0.155714 0.4174626
-2.509295 0.1385802 0.3956343
-2.60776 0.1403226 0.4684337
-2.563385 0.04634997 0.637117
-2.406606 -0.2304335 1.098249
-2.658657 0.1151605 0.5324615
-1.04286 -1.112395 2.702844
-2.467727 -0.2180084 1.138836
-2.169695 -1.477696 1.408613
-2.365819 -0.1034275 0.8652869
-2.394649 -0.2273205 1.107131
-2.226929 -1.484211 1.437145
-2.394769 -0.2476447 1.143703
-2.267489 -1.422906 1.477022
-2.165438 -1.418407 1.455547
-2.308527 -1.447015 1.526787
-2.251512 -1.41953 1.47149
-2.334201 -1.410788 1.515242
-2.186288 -1.418521 1.462145
-2.311096 -1.285707 1.609843
-2.282699 -1.280043 1.597994
-2.234664 -1.14514 1.76713
-2.140263 -1.124903 1.580004
-2.650167 -0.2966573 1.331991
-2.637315 -0.9646809 1.750112
-2.270569 -1.154422 1.661019
-2.589171 -1.120613 1.722015
-2.211719 -1.150666 1.637607
-2.206296 -0.9524145 1.867952
-2.378635 -0.2903845 1.21229
-2.221205 -1.072357 1.707634
-2.86833 -0.3064907 1.423535
-2.429729 -1.053444 1.909531
-2.442043 -0.1476493 0.9510221
-2.59489 -1.087688 2.000353
-2.278067 -0.9115767 1.865701
-2.324373 -1.094927 1.766532
-2.367588 -0.9158294 1.91916
-2.215654 -0.8341628 1.887334
-2.183835 -0.741709 1.89062
-2.212872 -0.6808584 1.93016
-2.021063 -0.1693395 1.963845
-2.220311 -0.8172774 1.871654
-2.371061 -0.8457799 1.974111
-2.238636 -0.8878929 1.832746
-2.233554 -1.026582 1.801674
-2.065073 -1.221792 2.729353
-2.112538 -1.373551 2.727045
-2.349387 -0.1828139 2.247108
-2.094298 -1.924528 2.34651
-1.623779 -0.3026242 3.121136
-2.07826 -1.895389 2.327487
-2.048127 0.1499065 2.384926
-2.166361 -1.498056 2.660002
-2.059722 -1.426099 2.533156
-2.042385 -1.312544 2.638019
-2.308343 -0.1922122 2.237571
-2.092233 -1.491596 2.606113
-1.990021 -1.225755 2.695248
-2.02657 -1.121757 2.818575
-2.094419 -1.532608 2.599854
-2.122702 -1.463986 2.60653
-2.022655 -1.878542 2.314026
-2.019974 -1.87281 2.312774
-2.566472 0.1854473 0.3580348
0.2884493 0.4152864 1.931811
-2.27017 -1.381801 1.483889
-2.072666 -1.911959 2.338036
-2.078414 -1.915277 2.351091
-2.028862 -0.8722616 1.420918
-2.588968 0.1282659 0.5130399
-2.525652 0.08769189 0.5380188
-2.687732 0.265679 0.2925565
-2.193513 -0.980578 1.712318
-2.191715 -0.9800445 1.729985
0.4255184 0.2245661 1.838782
-2.1841 -0.462133 1.456913
-2.030411 -1.586778 2.484436
-1.964469 0.306217 2.188503
-2.033955 -1.582474 2.500238
-2.066144 -1.610165 2.528214
-2.193238 -1.15382 1.643905
0.2499689 0.3606885 2.121274
-2.242647 -1.095018 1.738062
-2.03488 -1.501409 2.549449
-2.20172 -0.9873663 1.731109
-2.183474 -0.5073792 1.520095
-1.751967 0.06736761 2.504915
0.0863502 0.30395 1.926356
-0.03322631 0.1082833 1.767747
0.3777989 0.1430286 1.496796
0.7355286 0.2594463 1.784266
1.280759 0.6559275 0.9227369
1.05166 0.5532955 1.012979
2.255265 1.253863 -0.3078897
-2.367056 -0.2669561 1.179752
-2.052302 -1.588483 2.536987
-2.35943 -0.2672897 1.165654
-1.8643 0.2771601 2.067901
-2.057105 -1.408057 2.655383
-2.052793 -1.514102 2.597064
-2.077642 -1.533842 2.608438
-2.064469 -1.49209 2.544063
-2.077396 -1.612881 2.519189
-2.05477 -1.550801 2.559501
-2.062585 -1.599875 2.489836
-2.053226 -1.552561 2.570534
-1.760362 0.07344824 2.530074
-1.755816 0.0712931 2.521403
-2.092786 -1.411204 2.72858
-2.044424 -1.341252 2.717796
-2.007225 -1.275422 2.646091
-1.888767 0.2788879 2.105595
-2.04015 -1.379809 2.651599
-2.019453 -1.328227 2.67824
-2.044122 -1.303684 2.729267
-2.436554 -0.2712268 1.241068
-2.008609 -1.282955 2.683431
-1.630835 -0.2933522 3.212598
-2.020523 -1.205362 2.777734
-1.987501 0.1375345 2.274716
-2.027829 -1.292823 2.721717
-2.003829 -1.212641 2.75518
-2.005431 -1.202144 2.755845
-1.969214 -1.081812 2.815863
-2.026709 -1.174695 2.799332
-2.077293 -1.23781 2.837594
-1.989154 -1.096284 2.826969
-1.985265 0.1435322 2.350998
-2.012831 0.1337515 2.381212
-1.88524 -0.7781241 3.167831
-2.328465 -0.1856285 2.239439
-2.1714 -0.2035921 2.1715
-2.393122 -0.2971133 1.2162
-1.973669 0.1699124 2.335297
-1.974126 0.1674884 2.343072
-2.073645 0.1918446 2.450113
-1.982695 0.1694417 2.357131
1.063847 0.1209718 2.417985
0.1040353 0.2514777 2.208256
0.09859796 0.2542583 2.157684
0.07750085 0.1898438 2.176561
0.06497923 0.1922101 1.468763
0.07469497 0.1869736 2.305896
0.8178025 -0.8092155 1.877572
1.051053 -1.018279 2.270884
0.9502146 -0.8966751 2.122213
0.1592726 0.160136 2.349673
0.9130214 -0.9135948 2.17779
0.2458732 -1.547408 2.075821
0.9004386 -0.9258515 1.992221
0.9448676 -0.905411 2.11179
0.940998 -0.894466 2.111477
0.0768429 0.3223258 1.955217
0.1074949 0.1604636 2.20577
0.0004083614 0.1403732 2.285693
1.014964 -0.9280924 2.204801
0.005338013 0.1066962 2.110529
0.4313016 -0.8859646 2.04984
0.5097176 -0.9178709 2.162107
-0.7181221 -1.510433 2.04482
0.1885346 0.2533454 2.062995
0.08520501 0.2268209 1.805896
0.5804909 0.1538419 1.828679
-2.161121 -0.6199032 1.85267
-2.171457 -0.6213036 1.86783
-2.097548 -0.5268448 1.819093
-2.109267 -0.5310777 1.838834
0.7412949 0.2242206 1.975514
0.5944262 0.1598354 1.851473
0.9377119 0.2200861 2.232957
0.06776304 0.2390366 2.118646
-1.997726 -1.189974 2.730808
-2.006776 -1.3951 2.569259
-2.018778 -1.358516 2.636936
-2.021829 -1.383929 2.577793
-1.940771 -1.058574 2.723155
-1.873636 -0.777568 3.103491
-2.028301 -1.360942 2.556697
-1.972078 -1.137233 2.662535
-2.019885 -1.317956 2.692111
-1.926026 -1.105475 2.567674
-2.025492 -1.267573 2.644943
-1.980089 -1.144255 2.741027
-1.801299 -0.9760432 3.076063
-1.894321 -0.7950317 3.174519
-1.835666 -0.9854135 3.147493
-1.822403 -0.9957045 3.15958
1.207428 0.3535273 1.904562
2.618028 1.590537 -1.025284
0.7650385 0.3130901 1.815198
2.28588 1.276291 -0.2995568
-0.9519351 -1.893919 2.321431
1.211044 0.2959438 1.995726
2.360214 1.22632 -0.09852045
2.766037 1.557548 -0.9312322
1.104057 0.3193709 -0.2690087
1.22072 0.2836389 1.998021
1.037572 0.5526933 1.085494
2.857297 1.338263 -0.1865587
1.110615 0.3256032 -0.2671338
1.066144 0.5671755 1.103463
2.768985 1.385074 -0.41874
0.09546515 0.3209305 1.994407
1.071252 0.56981 1.020945
1.277415 0.254234 2.302714
0.7953652 0.2312669 2.232238
0.05222024 0.1994128 2.150584
-0.005252163 0.099405 2.441905
-0.7147216 -1.537088 2.092545
0.5244794 -0.9120954 2.136697
0.06728578 -0.9800281 2.280435
-0.7883891 -1.5272 2.091175
-0.815606 -1.557349 2.135761
-0.8142088 -1.605682 2.218522
0.1400107 -1.012094 2.350327
0.2024516 -0.9509977 2.192473
-0.8127284 -1.314638 1.873103
0.1647762 -0.9968602 2.213224
-0.6102337 -1.09974 2.615909
0.4260332 -1.022751 2.404324
-1.893557 -1.148575 2.334145
-1.889276 -1.066545 2.477883
-1.97732 -1.317712 2.528383
0.1288832 0.2521619 2.338487
0.1930713 0.3386941 1.771228
-0.7454016 -1.619255 2.201496
0.03044157 0.1370497 2.448131
0.1775014 0.1832573 2.525943
0.1983373 0.160082 2.647125
0.7803783 -0.8890128 2.220209
-0.6967177 -1.556314 1.981686
0.76038 0.2100156 2.035207
0.9547083 0.3326033 1.843281
0.8125839 0.1857945 2.120689
0.96997 0.1946951 2.19242
1.07789 0.2529688 2.005919
1.04265 0.113636 2.328909
1.168424 0.2102231 2.182086
1.066704 0.1381147 2.329025
1.36603 0.2896871 1.877654
2.089969 0.7983894 0.8713486
2.06729 0.7914954 0.8531216
2.007201 -1.711638 2.051284
2.131974 0.74581 1.005206
1.877901 -1.77778 1.888773
2.038339 0.6945865 1.038442
1.898487 -1.782589 1.918318
1.902062 -1.775919 1.915871
1.877524 -1.575436 1.836975
0.8344831 0.4220176 1.564054
2.347994 0.8551382 0.7784153
1.800778 0.7424068 0.01084779
2.872115 1.628576 -0.9117279
1.609889 0.1572534 2.799943
-0.01360068 0.07201941 2.569598
-0.692695 -1.575883 2.030847
-0.7015317 -1.532236 1.985788
0.01248146 0.09645742 2.587915
0.8126847 0.174968 2.473957
-0.6929353 -1.547679 2.04171
-0.9356537 -1.753888 1.97578
-0.9242761 -1.782429 2.037611
-0.7846994 -1.555459 2.196882
-0.9377177 -1.680714 2.038201
-0.9449538 -1.826105 2.241427
0.9806084 -0.8868816 2.123011
-0.9297065 -1.875544 2.112002
0.5288309 -0.8860403 2.22609
0.2754602 -1.063311 2.276591
-1.980691 -1.156456 2.705513
-1.163792 -0.8440124 2.551325
-0.6871558 -1.166887 2.576499
-1.119642 -0.2015338 2.547378
-1.723771 -0.4955529 2.751118
-1.71147 -0.4047055 2.784358
-1.718997 -0.4956529 2.711578
3.56468 1.276681 -0.06131496
2.62495 0.7945713 0.9530289
2.638167 0.8929785 0.7585437
3.735179 1.313486 -0.1492579
3.766356 1.346108 -0.10566
3.543785 1.198095 0.009333828
3.038131 0.9953106 0.5665671
2.220797 0.5212482 1.497076
5.561799 -0.303497 -1.227495
5.598743 -0.02913826 -1.043504
5.60752 -0.3071 -1.212969
5.575981 0.3839083 -1.102169
5.379906 1.164277 -1.062637
5.467123 1.477602 -0.9764985
5.623263 -0.03819738 -1.04523
3.004577 0.890036 0.9367999
3.005951 0.9033862 0.948166
3.65992 -1.030547 0.5889436
1.933997 -1.794192 1.939012
5.58338 0.2020245 -0.9954001
4.398418 1.37772 -0.2530847
5.481588 0.9784559 -0.6633896
4.409641 1.317445 -0.1096626
4.275127 1.311203 -0.01947868
0.3922726 0.1885576 2.014869
-0.01721925 0.1071556 2.319215
0.7577659 0.1783734 2.029043
-0.1117631 0.04734207 2.20419
-0.6902007 -1.621932 2.137619
0.9608985 0.2004313 2.252656
-0.06034006 -1.006093 2.233132
-0.1143995 0.03807408 2.075029
0.5030112 -0.8467942 1.809276
0.3571082 -0.9244934 2.16131
0.05270538 -1.418765 1.925134
0.758142 -0.9069274 2.242507
0.1459832 -1.422495 2.084393
-0.04329373 -1.031211 2.327593
0.9359446 0.1164435 2.050787
0.1626778 -1.36933 2.170068
0.3322452 -0.8297052 1.617477
0.4813259 0.08875901 2.186594
-0.1487439 0.05024557 2.483888
0.132752 -1.324762 2.113492
0.04373683 -0.994852 2.201713
0.05235888 -1.077456 2.569994
-1.103503 -0.7665771 2.305162
0.9563669 0.1364016 1.945812
0.3068973 -0.8921413 2.00856
0.6105632 -0.9263664 1.73167
-1.124193 -0.6997938 2.355274
0.3244718 -0.8939795 2.045385
0.3259497 -0.9032536 2.048497
0.6979523 -0.8644445 2.093568
0.6910624 -0.8532965 2.033739
0.3387414 -0.9000301 2.070453
0.08286466 -1.006145 2.318168
1.514001 0.06325826 2.621282
0.2866926 -1.031001 2.457993
1.560094 -0.3693064 2.350582
1.43598 0.05085342 2.517104
-0.4260865 -1.113202 2.392007
2.301772 1.289743 -0.2941261
-0.1494378 0.05269496 2.486663
1.400652 0.2876924 1.956463
-0.1431999 0.04526953 2.469534
2.424664 1.384346 -0.2391467
1.052354 0.5161039 1.384372
1.903129 0.6316617 1.138562
0.806314 -1.64925 1.714047
0.03859871 -1.239599 1.694592
0.9833598 0.4046253 1.643075
1.047916 0.3540155 1.629165
2.108408 0.72633 1.024786
1.124135 0.4335478 1.522839
1.917264 -1.766389 1.879549
1.145534 0.4573928 1.393969
0.8711163 0.3067641 1.777024
0.9550003 0.3317215 1.833139
0.8869191 0.3223411 1.804864
1.250742 0.4455983 1.559105
0.6556983 0.1804387 2.046185
1.291165 0.4025424 1.538627
1.763908 0.6179455 1.217371
1.720303 0.5280506 1.287494
3.359299 1.682504 -1.32362
2.788286 1.383224 -0.3947571
2.052135 0.7047926 1.055325
2.030216 0.7187485 1.046527
1.912112 0.6373963 1.235823
2.676866 -1.056586 0.9030969
0.9281932 0.3323348 1.832376
1.770289 0.6312391 1.259907
0.6932877 0.1726517 2.179508
0.2579667 0.3461689 1.72797
1.163232 0.5653562 1.130945
0.7446494 0.4182147 1.492949
0.9146943 0.4384192 1.495632
1.33355 0.5351724 1.3062
0.02979215 0.1510434 2.185587
0.02295427 0.151879 2.170556
1.331485 0.5380361 1.2918
2.386131 1.343615 -0.2692882
2.400475 1.16367 0.06657641
1.316461 0.5354225 1.282265
1.866775 -1.757515 1.851906
-0.5381962 -1.041981 2.173462
0.4609618 -0.8485411 1.843202
0.8961954 0.3570199 2.605468
1.834237 -1.445053 1.906979
1.487435 -1.419217 1.596581
1.570038 -1.367014 1.682525
1.278475 0.2692629 2.318178
1.753201 -1.500518 1.794685
0.6077374 -0.8565741 1.975846
0.6377334 -0.8599705 2.028037
1.914039 -1.367214 2.010056
1.199903 0.1975289 2.576427
-0.5693034 -1.150608 2.638601
1.816525 -0.8966916 2.145884
1.449509 0.08898766 2.557795
1.855098 -0.3579195 2.374942
1.891542 -0.9048225 2.218259
1.722546 -0.3528141 2.48541
2.06441 0.06762058 2.703154
1.608999 0.0008921972 2.739029
1.803421 0.1023093 2.459352
1.928678 -0.2434525 2.509295
1.75436 -0.252023 2.831911
2.236503 0.1060498 2.892908
1.518209 0.08228412 2.666982
1.459646 0.09908825 2.614029
1.811165 -0.2565722 2.893151
1.482105 0.08038669 2.605743
1.905168 -1.303845 2.033052
1.636758 -0.172322 2.434374
1.909822 -1.065401 2.158988
0.763748 0.4416863 1.558674
3.509417 1.240155 -0.03193079
1.642655 -0.3627189 2.389932
1.222564 0.3261199 -0.2325898
3.406603 1.330127 -0.2052977
3.534687 1.267082 -0.06495631
0.91845 0.3086459 1.753226
3.544151 1.277132 -0.06762943
3.310584 1.145689 -0.0732952
3.545697 1.275391 -0.0656475
3.534213 1.265194 -0.05180088
2.629965 -1.532129 1.662808
2.84914 0.7825274 1.039609
1.858481 -1.511371 1.959514
1.143037 0.2923095 -0.1632115
2.801581 -1.604704 1.76957
3.353322 1.01553 0.3656462
2.810408 1.589745 -0.9234417
2.829207 -1.600261 1.743217
3.597846 1.227958 0.06172919
3.486117 1.161644 0.1976258
2.738147 -1.064021 0.9413913
1.706477 -0.3367233 2.374381
2.735392 1.04633 0.3212725
1.803424 -0.3390217 2.376082
3.548041 1.556661 -0.7388391
2.5887 0.7921119 0.8774194
3.438791 1.53338 -0.9351296
3.541384 1.4958 -0.5321289
3.49841 1.46888 -0.5332676
3.578465 1.552813 -0.7549041
2.533391 0.75269 1.072332
3.430331 1.283014 -0.2193743
2.57228 0.5482338 1.56441
3.312454 1.151053 0.08737468
2.260536 1.061569 0.2821595
2.936518 0.8092662 0.9760453
1.821609 0.7549667 0.01894462
3.60365 1.349452 -0.191456
1.851134 0.4864276 1.575494
2.69181 -1.059845 0.9072332
1.886925 0.6222671 1.371006
1.863863 0.6066701 1.313398
2.638815 -1.060316 0.8924891
0.8122419 0.1935083 2.123346
1.804237 0.5683486 1.347044
2.706834 -1.067696 0.9256821
1.646216 0.4758911 1.749722
1.855711 0.6870391 1.273175
1.638867 0.487392 1.547312
0.7822313 -0.8548042 2.293382
1.665531 0.4931461 1.571959
1.153867 0.3016726 1.795871
2.695229 -1.157632 0.8402323
1.345813 0.3527099 1.785746
2.266846 0.7044204 1.295395
1.199795 0.2738457 1.962835
2.673453 -1.021648 0.9383027
2.14783 0.5346503 1.447681
1.53184 0.419648 1.655506
1.398304 0.3145292 1.921245
0.3350556 -1.017104 2.539654
1.280444 0.2789903 1.953895
2.115223 0.6196835 1.636832
1.342496 0.3631914 1.791506
1.417749 0.3070642 1.972534
1.082169 0.1578336 2.295462
1.391232 0.2888005 1.94878
1.871401 -1.75484 1.85977
2.799942 0.7269305 1.235336
3.236312 0.8044407 1.386255
2.315577 0.5854326 1.624996
3.045955 0.7177464 1.290072
3.111468 0.6405116 1.48453
1.569627 0.0900631 2.512049
2.442773 0.5125055 1.641361
1.669739 -0.3484352 2.338297
1.519026 -0.1760202 2.420153
2.460217 0.5224008 1.649397
2.742297 -1.315562 1.909719
2.7836 -1.594606 1.754484
2.462331 0.5148957 1.643968
2.816219 -1.607867 1.766265
1.76438 -0.3526004 2.386795
2.801675 -1.603348 1.769857
2.687238 0.1434771 2.46746
2.63972 -0.5053363 2.265874
2.70837 -0.585722 2.213688
3.030514 1.596582 -0.8299602
2.818897 1.421338 -0.4104385
2.974159 1.555974 -0.8255437
2.721408 -1.059588 0.9259613
2.834615 1.318272 -0.2056921
2.819261 1.306904 -0.231614
2.118478 0.7348719 1.035622
2.72905 -1.154991 0.8738409
3.360809 1.692044 -1.379649
2.815601 1.302178 -0.2254672
2.999075 1.575069 -0.8304246
2.762861 1.269532 -0.1695904
2.851008 1.28045 -0.1075056
1.784047 -0.537955 2.379619
2.776835 1.277229 -0.09396818
1.789707 -0.3211291 2.314615
2.361916 0.8586489 0.7871935
2.722987 -0.6931666 1.176272
2.241087 0.6557198 1.219559
2.257076 0.6640832 1.236261
3.558689 1.544691 -0.7476998
1.844702 0.4820699 1.567464
2.989244 1.205056 0.04419947
3.608209 1.567939 -0.754655
3.503934 1.526523 -0.7516267
3.46944 1.551253 -0.9242905
2.994568 1.206555 0.04888755
2.76618 -1.520007 1.78521
3.719495 1.630598 -0.7403684
3.830829 1.470762 -0.5361078
3.396132 1.179716 0.1391723
2.725543 1.254026 -0.09835312
2.736489 -1.199392 0.9016969
2.738356 -1.19973 0.9068567
2.895709 1.367091 2.072807e-05
2.54129 0.7580992 1.085342
2.967196 0.8709543 0.8522263
3.862022 1.506282 -0.5575841
5.982317 -0.9277566 1.070575
4.15779 -1.633354 1.637718
4.918839 -1.208784 1.397349
4.100666 -1.088701 1.286087
4.868859 -1.163069 1.224517
3.764861 -1.619208 1.97151
5.972545 -1.433273 0.9858745
4.860769 -0.6051413 1.549226
4.104054 -1.165176 1.402451
3.825084 -1.435715 1.600372
4.945497 -1.101919 1.66532
4.850716 -0.6181939 1.58103
5.817658 -1.392371 0.9055823
5.339233 -0.8772331 1.10514
5.692922 -0.5143287 1.295198
2.49589 0.8433214 0.8019212
4.138273 -0.4869511 2.272734
4.967195 -0.6162111 1.554992
4.795813 -0.3634556 1.562501
4.127433 -0.4721047 2.161554
4.163024 -0.8915771 1.920244
5.257989 -0.8574205 0.988732
4.781871 0.2846744 1.887671
4.616892 -0.130727 1.951397
3.771443 0.4160621 1.89668
5.553478 0.6063268 -0.7137633
5.50161 1.019764 -0.6402184
5.720192 -0.3781323 -0.5633201
2.991501 0.7657622 1.05714
3.658067 -1.042981 0.6327296
3.440524 0.9078133 0.8108506
3.697301 -1.06079 0.6818342
5.824505 -0.195264 0.8274258
3.68617 -1.06957 0.6965666
5.638854 0.1912069 -0.4594551
2.448078 0.5914567 1.28912
3.682976 -1.038538 0.6417674
2.320549 0.5763322 1.468671
3.633049 -0.9316978 0.6257119
2.697667 0.6560283 1.120017
2.780544 0.7039503 1.191382
2.703171 0.6423184 1.269949
4.231982 1.291902 -0.0572935
3.415122 0.943741 0.7185718
5.671381 -0.0368889 -1.011256
5.471608 0.989415 -0.6630265
3.471342 0.9618246 0.6731488
4.457274 1.336588 -0.07442088
4.436883 1.331052 -0.0883621
3.473327 0.949514 0.6699217
4.334887 1.192525 0.1903786
4.371044 1.210676 0.2450278
4.312032 1.184203 0.1968256
4.345431 1.197143 0.201553
5.519461 0.784614 -0.7452156
5.757229 -0.8559732 -0.6517856
5.69963 -0.577351 -0.787275
5.514555 0.7899257 -0.7442088
3.632214 -0.9346234 0.6272442
3.493972 0.8384926 0.8969657
5.534759 0.9936767 -0.6447628
4.601153 1.30925 0.06116524
2.492226 0.8698137 0.7757163
2.522726 0.8840663 0.7787983
2.702724 1.275485 -0.2042631
2.449278 0.5311981 1.587478
2.69222 -0.6591583 2.160975
2.506563 0.7601471 1.071933
2.628538 0.8098664 0.9051964
2.621036 0.8850187 0.7220446
2.661036 1.029963 0.5247524
2.641182 0.8997715 0.7268814
2.624046 0.8049864 0.9110891
2.778382 1.070962 0.3482217
2.865485 1.119219 0.04555891
2.69019 0.6955695 1.18794
4.031623 0.8049449 1.199911
2.892836 0.8122472 0.9430478
3.014424 0.7759613 1.091804
3.378566 1.709974 -1.386729
3.695892 -1.048866 0.6507536
2.780871 0.7080142 1.207459
5.552594 0.5620633 -0.8414646
5.433551 0.986646 -0.8558714
5.571011 0.1376892 -0.8535784
5.545037 0.4445153 -0.8414196
5.642833 0.8222126 0.1290963
3.023384 0.7698337 1.108368
3.478385 0.9645059 0.6690357
2.576944 0.5476831 1.575652
3.024599 0.7593238 1.112631
5.713192 -0.579217 -0.7792067
5.929801 -1.272737 0.6759283
4.015763 1.080254 0.4830505
4.629533 1.332218 -0.03532419
5.520772 0.90363 -0.6862217
4.558073 1.28766 0.02970131
5.671654 -0.3542843 -0.744361
4.392787 1.215341 0.2430592
5.471016 1.063631 -0.6314261
3.639504 0.8945904 0.8535861
2.987332 0.6432211 1.382137
5.672873 -0.2687212 -0.6472534
2.864923 0.6104425 1.435118
5.605413 -0.2583016 -0.6822466
5.479564 1.327485 -0.6925814
5.51384 1.0732 -0.6132763
5.694308 -0.338788 -0.7254435
5.56547 0.6219534 -0.7040499
5.68517 -0.2704902 -0.6446004
5.636841 -0.0737937 -0.5856707
5.719952 0.6093366 0.4532302
5.527367 1.094595 -0.5995678
5.668359 -0.3394983 -0.6809886
5.646536 0.006599393 -0.5389418
4.162192 1.055278 0.5909205
5.772486 -0.730104 -0.5098196
3.92328 0.9547654 0.791342
5.682157 0.006025585 -0.5230129
