# .PCD v.7 - Point Cloud Data file format
VERSION .7
FIELDS x y z
SIZE 4 4 4
TYPE F F F
COUNT 1 1 1
WIDTH 1663
HEIGHT 1
VIEWPOINT 0 0 0 1 0 0 0
POINTS 1663
DATA ascii
1.023465 0.295105 2.089533
0.9656 0.3676527 1.86377
1.121984 0.2735148 2.115574
1.831746 -0.2479636 2.299256
0.4617552 0.2620403 2.194574
1.3253 -0.6968961 2.420043
1.464821 -0.6302572 2.386849
0.7130003 -0.7562116 2.45626
1.008003 -0.3856713 2.449919
-0.3824108 0.3943898 1.817207
-1.079015 0.3057616 2.076257
0.7330132 0.4334609 1.785395
0.6509763 0.2357747 2.164542
1.111559 0.1687403 2.342691
0.7498624 0.2663234 2.205012
1.292976 0.2437773 2.258826
1.488443 0.1358771 2.450578
-0.6844872 0.3701151 1.914333
-0.6726263 0.3441672 2.00452
1.278402 0.3383943 1.934158
1.234222 0.3141663 1.971731
0.0876164 0.2101562 2.31435
0.02497724 0.1094846 2.621357
0.320054 0.452514 1.698657
0.2664845 0.4388212 1.719077
0.9102161 0.2896783 2.130623
0.9671022 0.3692884 1.86798
1.531392 -0.0877753 2.401267
1.537158 -0.2072001 2.392219
1.713288 -0.1903239 2.266846
0.537392 0.3465096 1.963596
0.8767398 0.1571291 2.410658
1.719405 -0.2980236 2.249466
0.2456269 -0.861275 2.647369
0.9964932 -0.3814589 2.422601
-0.3905377 0.4089034 1.849031
-0.8927302 0.4076361 1.777926
-1.307762 0.2613097 2.244317
-1.563185 -0.8006929 3.291321
1.210201 0.233064 2.208917
-0.8227604 0.3380125 1.991541
1.551462 -0.3169824 2.384966
0.1813591 0.356986 1.883683
0.1556686 0.2801216 2.110025
-0.7424812 0.316061 2.021917
0.2666511 0.436429 1.724314
1.337142 0.3672381 1.826507
1.345852 0.3482464 1.897031
0.7433978 0.3739208 1.834401
1.022087 0.2981936 2.080016
0.8922745 0.2863797 2.095691
1.088099 0.3571945 1.851549
0.9832904 0.3767239 1.897392
0.2468377 0.3741733 1.849091
0.6841459 0.3648975 1.945912
0.6552125 0.2479709 2.176572
0.9688902 -0.7732573 2.369717
0.5843157 -0.7796272 2.50648
1.085441 0.3592925 1.858163
-0.7645354 0.3805225 1.931206
-0.6525509 0.3227151 1.941348
-0.05658464 0.11649 2.480956
-0.7386105 0.3142389 2.00956
-0.8071579 0.3240672 2.00584
0.05118946 0.1843301 2.349555
0.07637991 0.1011056 2.554804
1.749395 0.1515864 2.400352
1.507018 0.03925723 2.413782
0.9552062 0.3636353 1.857982
1.467537 0.1169773 2.477069
0.2585489 0.3862839 1.88974
0.664432 0.2491942 2.211462
0.8489143 0.1463756 2.33776
0.6664067 0.1656507 2.424274
1.463193 -0.2693842 2.474274
1.531395 -0.3177125 2.381346
0.2299901 -0.8629729 2.623725
0.06402696 0.2942115 2.324238
1.514798 -0.07977394 2.401031
1.501251 -0.1992859 2.371559
1.495491 -0.1315031 2.402417
1.697256 0.06137647 2.302282
1.306184 0.2825254 2.337925
1.252353 0.3170762 1.941732
1.275588 0.2877315 2.004472
0.8023245 -0.7343675 2.42129
-0.5092626 -0.9501303 2.881111
0.270288 -0.8300545 2.527861
-1.529276 -0.201818 3.31374
1.008741 -0.3701034 2.432036
-1.001627 -0.7510027 3.036566
-0.05247696 0.1209858 2.520949
-0.6815165 0.3359306 2.001424
0.2609074 0.3934186 1.900312
0.05615961 0.2366541 2.082721
0.4676308 0.4642577 1.6791
-0.9503379 -0.8438887 2.919199
1.642463 -0.3087755 2.34563
1.528797 -0.3204246 2.380295
0.8169581 0.37039 1.944793
1.089366 0.1954148 2.42136
1.301185 0.3530247 1.91939
-0.3839175 0.4169476 1.830714
0.8809898 0.4072469 2.065633
0.9968617 0.2222998 2.216975
1.59592 0.1158556 2.368106
1.585742 -0.01059448 2.427534
-0.05574276 0.1317593 2.500118
1.027697 -0.6745607 2.3906
0.7289132 0.2565033 2.174358
0.873179 0.1589661 2.423653
1.244067 0.1951033 2.328301
1.042374 0.1797314 2.338758
1.080065 0.3569082 1.86266
0.2083512 0.3266841 2.011409
-0.2121483 0.4206672 1.772029
1.154439 0.5095298 1.463018
0.7125285 0.418039 1.747834
1.254221 0.4198985 1.690112
1.285332 0.3400935 1.922755
-0.3875943 0.3996207 1.838406
1.228683 0.4164316 1.718588
1.578709 0.591315 0.1984687
1.763668 0.6180905 1.109235
1.984741 0.6852183 0.9185984
1.768529 0.6231857 1.110762
2.015465 0.7062377 0.8758405
1.815915 0.6546208 1.127381
1.776789 0.5902054 1.21728
1.915828 0.6638004 1.012835
1.454602 0.4599757 1.700418
1.619345 0.5450628 1.359441
1.433089 0.4376009 1.701623
1.569151 0.5103452 1.424168
1.771364 0.5873192 1.217624
1.544853 0.5016184 1.478983
1.964608 0.6658617 0.923152
1.768256 0.5795049 1.219859
1.396144 0.2810642 2.046399
1.920291 0.662753 1.015
1.544801 0.8576682 0.2921866
1.645884 0.5152603 1.426596
1.770939 0.5800483 1.222651
1.683587 0.5434158 1.353536
1.427726 0.4285352 1.730109
1.705223 -0.1369845 2.333154
1.652465 0.03858529 2.385376
1.034774 -0.693932 2.418376
0.9064276 -0.7835751 2.404359
0.9999856 -0.6787471 2.368989
0.5954803 0.1812568 2.359724
1.415743 -0.2797291 2.433783
-0.7029257 0.1455626 2.498997
0.9623631 0.05650873 2.453748
1.532832 0.1111773 2.3731
1.539987 -0.2149414 2.380414
-0.7088214 0.1508407 2.518022
1.524175 0.03915527 2.41696
1.530446 0.02711278 2.410528
1.647737 0.0597265 2.426738
0.710492 -0.7581491 2.461993
0.02304064 0.119494 2.608303
1.496964 -0.1453053 2.390035
1.512713 0.02694723 2.401408
1.57189 -0.1358392 2.3762
0.9426512 -0.05739474 2.389155
0.4344825 -0.785287 2.541702
1.604432 0.1379581 2.407283
-0.5092936 -0.9485816 2.900851
0.7022908 -0.7541607 2.439684
-1.713739 -0.8214541 3.204868
-0.2847087 -0.9172742 2.875247
0.8167296 0.3399238 1.901474
-0.9793947 -0.04610372 2.983421
-1.686206 -0.813489 3.156778
-0.07414806 0.1241745 2.575098
0.2572486 -0.8508595 2.615153
0.252768 -0.8641054 2.656113
-0.0698278 0.119967 2.533736
-0.07236481 0.1220937 2.585803
1.561413 0.145664 2.554125
-0.7272888 -0.954861 2.840762
-0.5118961 -1.334736 2.848842
-0.9276821 -0.8481816 2.925529
0.3818189 -0.8542751 2.670087
-0.9783881 -0.7521088 3.013837
-0.5092892 -1.324925 2.837349
0.8914698 0.3968588 1.736154
-0.7438755 -1.103235 2.855081
-0.6860766 0.343844 1.983095
-0.5111341 -1.343747 2.885408
-0.9500605 -0.8577425 2.975091
-0.9595066 -0.5185649 2.923165
-0.6483411 -0.914443 2.860672
-0.7202062 -0.9507257 2.822223
-0.7507778 -0.9573416 2.853935
-0.9542499 -0.6291946 2.957361
-1.848478 -1.475414 3.040351
-0.9706571 -0.5189827 2.954745
-0.9469059 -0.745232 2.959688
-1.845864 -1.386608 3.074801
-0.2866606 -0.9219621 2.89844
-0.9800462 -0.7570937 3.035595
-0.3235924 -0.9275932 2.919585
-0.9528663 -0.2724893 2.948975
-0.9228206 -0.5979186 2.9724
-1.791985 -1.236187 3.049145
-1.811592 -1.244457 3.086417
-1.814211 -1.252996 3.072609
-0.2745803 -0.8787633 2.711045
-1.020315 -0.1006301 3.04568
-0.505362 -0.9446895 2.91264
-0.8732755 -0.9313244 2.930352
-0.8756932 -0.9344598 2.939072
-1.742021 -0.952116 3.129082
-1.795486 -1.083237 3.143262
-0.874429 -0.939351 2.950865
-0.9617486 -0.04794364 2.944608
-0.9777666 -0.1184869 2.947648
0.6798943 0.3665065 1.938971
-1.718758 -0.9425163 3.111059
-1.730813 -0.9486817 3.126086
-1.816676 -1.090629 3.1728
-1.701195 -0.8235542 3.17165
-0.5005082 -0.9398423 2.869369
-0.5298148 -0.9941784 3.068599
-1.592112 -1.025169 3.243426
-1.602641 -1.036454 3.271047
-1.541 -0.2119437 3.354293
-1.442674 -1.03794 3.047871
-1.710028 -0.5967212 3.442423
-1.548267 -0.2107319 3.315629
-1.610186 -0.6036287 3.314704
-1.676317 -0.6198318 3.435817
-1.71161 -0.605128 3.442898
-1.580073 -0.8100154 3.313675
-1.581177 -0.58322 3.203882
1.61014 0.7457057 0.2761895
2.483144 -0.2923631 2.019696
1.722078 0.5821162 0.2313881
1.726637 0.5801351 0.2278504
1.977242 0.8698981 0.4175858
2.848567 0.6850946 0.891936
1.631284 0.8133581 0.5809377
1.648626 0.7999197 0.616677
1.786008 0.5597252 0.19405
1.305037 1.316964 -0.7201036
1.774137 0.6100461 0.2351402
1.427974 0.7620825 0.2432716
1.653714 0.8685976 0.4256863
1.676148 0.5350912 1.396455
1.713878 0.8787449 0.3216843
1.699284 0.8676848 0.3229744
1.712837 0.881457 0.3205908
1.764518 0.7924344 0.3194318
1.772498 0.7999471 0.3159145
1.782805 0.794369 0.3083059
1.793581 0.8372172 0.4875707
1.894226 -0.3034561 2.274452
1.777995 0.7919016 0.3135375
1.818355 0.8600088 0.4409998
1.822908 0.8270376 0.5336239
1.82381 0.830395 0.5336031
1.492741 1.341183 -0.8226995
1.819057 0.48471 1.502787
1.940345 0.7532657 0.7169214
1.663852 0.5160464 1.390653
1.547545 0.4588962 1.55037
1.205881 0.2500707 2.152273
1.186538 0.2113486 2.092496
1.486819 1.336671 -0.8229349
1.581071 0.7216884 0.2488565
2.098204 0.6367427 1.075661
1.124854 0.1902319 2.332609
1.609997 0.6521136 -0.07293812
1.136329 0.1990785 2.340141
2.420968 0.7161055 0.841625
1.492596 1.344781 -0.8280721
1.963028 0.5367816 1.326686
1.823484 0.4898735 1.502351
2.184898 0.6296484 1.056857
1.952292 0.5336246 1.325599
2.603435 -0.8336424 0.8672736
1.822148 0.4850307 1.489669
2.182465 0.634052 1.058981
1.83012 0.4877738 1.49264
1.442478 0.2326839 2.131193
1.824297 0.4863839 1.47603
1.543401 -0.8220968 2.283705
1.607791 0.671133 -0.08602067
2.622841 -0.8322416 0.8659327
2.270203 0.5615555 1.272841
1.474017 -0.6278936 2.395765
-0.8704209 -0.9272935 2.921466
-0.8457781 -0.9293938 2.901473
-1.593867 -1.124197 3.342214
-1.519623 -0.2100572 3.247298
-0.514039 -0.9603341 2.961625
-1.573816 -0.3514093 3.255071
0.5039443 -0.9967056 3.251958
0.4654549 0.2712342 2.16092
0.7809021 0.2457543 2.205945
0.8332459 0.2560354 2.159732
1.064661 0.2424984 2.055704
0.8484565 0.265787 2.184822
1.285395 0.3009397 2.046203
0.8968948 0.2363062 2.182109
1.190808 0.2389905 1.9962
1.195442 0.2460806 2.146907
1.18896 0.2354121 2.135757
1.358469 0.3328305 2.215787
0.7008787 0.2281521 2.27859
0.6858183 0.2657763 2.22743
1.914487 -1.243502 2.039086
1.135422 0.2107171 2.244836
1.23525 0.4769367 1.541294
1.128656 0.2027473 2.27679
0.9134021 -0.4918981 2.314231
0.891391 -0.1609654 2.375921
1.028248 -0.9533241 2.316061
2.579475 -0.832875 0.8699619
0.693781 0.1570561 2.408083
1.942659 -1.288089 2.043863
1.781381 -0.8354508 2.025392
1.902092 -0.8668773 2.18539
1.943992 -0.8811607 2.184009
1.20589 0.4579597 1.537032
1.941091 -0.8820924 2.193052
0.6905954 0.1604546 2.422346
2.594071 -0.8314837 0.8696285
1.857929 0.03711928 2.30572
1.109506 0.1783285 2.303814
1.883932 0.1544391 2.335334
1.863551 -0.2872868 2.278585
0.6746666 -0.7980568 2.531086
1.858187 -0.3023497 2.283933
1.764583 -0.2881156 2.194688
1.892458 -0.2971513 2.287026
0.273628 0.1461633 -0.1278014
3.502779 0.9376552 0.1997443
3.740551 0.756586 0.7862607
3.461607 1.240508 -0.6251206
3.456721 1.234454 -0.6238868
3.511484 0.9408588 0.2047962
3.455744 1.237964 -0.6254164
3.475806 1.257461 -0.6365042
3.494657 0.9332085 0.1997643
3.735331 0.748363 0.7745604
3.085154 1.299521 -0.9381945
2.904981 1.306708 -1.283332
4.084296 1.140189 -0.3878635
3.758504 0.7653583 0.7889364
4.20588 1.149218 -0.4156882
4.110146 1.157332 -0.37604
4.075713 1.146853 -0.3819164
3.634488 1.255659 -0.6633953
4.265543 1.181378 -0.42616
2.946774 1.371243 -1.016238
4.151199 1.107055 -0.4012245
3.954447 1.216974 -0.5999852
3.634231 1.252509 -0.6654946
3.92317 1.162643 -0.4995313
3.797759 1.272345 -0.7622085
2.941551 1.358416 -1.330047
4.140421 1.273963 -0.4980918
2.997192 1.423061 -1.390212
3.410474 1.351525 -1.009816
3.592642 1.345041 -0.966702
3.923007 1.197883 -0.5982731
3.429478 1.3682 -1.016917
3.11172 1.424014 -1.193304
3.926748 1.259253 -0.8135133
3.970038 1.277079 -0.8168415
3.25096 1.464172 -1.232424
1.854192 0.0845468 2.323715
1.949748 -0.2365277 2.337837
1.827355 -0.1650055 2.272907
1.785551 0.07183494 2.270062
1.5396 -0.2111843 2.388574
1.790806 0.1075116 2.318754
1.844329 -0.657388 2.304483
1.85451 -0.5054604 2.354196
1.470544 0.1255574 2.414837
1.806178 -0.5062284 2.31813
1.547507 -0.3479105 2.439325
1.853322 -0.4999605 2.333884
1.773219 -0.6548797 2.236825
1.416304 0.6005965 0.1819456
2.050266 0.7528792 0.688466
1.569363 0.5814648 0.1879225
2.061964 0.7653865 0.6880831
2.135827 0.7608243 0.7176346
2.020725 0.7055154 0.8847832
2.394712 0.9231727 0.336461
2.07493 0.7731934 0.6903943
1.417664 0.6043218 0.179405
2.616323 -0.7198882 0.9954275
2.21584 0.8101529 0.5803422
2.219327 0.8456621 0.5082788
2.212955 0.6326687 1.050064
2.223129 0.8453869 0.5090647
2.260544 0.8838795 0.2710746
2.289146 0.9110711 0.2567925
2.386825 0.6939173 0.8459225
2.389575 0.7526167 0.7625826
2.45204 0.3302211 1.87537
2.411324 0.7187912 0.8419608
2.586081 0.9830938 0.05981488
2.484293 0.764493 0.7008998
2.762033 -0.4082392 2.068275
2.459491 0.3368163 1.878873
2.513615 0.984094 0.04457227
2.614558 0.6385498 0.9626037
2.779778 0.1707068 2.239097
2.820207 0.6151688 1.06184
2.715049 0.9103678 0.2700822
3.009888 0.9192864 0.2752828
3.04052 0.6095461 1.151907
1.57289 0.6501386 -0.0487573
3.029062 0.5984775 1.150014
3.057855 0.6111306 1.14722
2.99719 0.8967521 0.3411268
3.037316 0.5965818 1.146797
3.27696 1.144257 -0.4355656
1.977211 1.116788 -0.4475278
3.264871 1.146674 -0.4437196
1.558566 0.5933708 0.1883693
3.306312 1.163884 -0.4473026
3.232383 0.99661 -0.05115997
3.229984 0.8613416 0.4089398
3.369328 1.1286 -0.346333
3.181969 0.971486 -0.03755475
3.213135 0.9970075 -0.08952619
3.381906 0.8525876 0.4661057
3.446721 0.761183 0.5962932
3.27357 1.072238 -0.3284408
3.373132 1.117133 -0.3732242
3.380197 1.120435 -0.3733572
3.355289 0.8437034 0.4780239
1.35127 1.358017 -0.8813766
2.506563 0.6035152 1.165679
2.481714 0.5663021 1.187709
2.689106 0.6706256 0.9596187
1.555377 -0.01081463 2.382154
2.42736 0.5086793 1.431455
1.944933 -0.6708282 2.351315
2.419993 0.5176142 1.399831
1.846037 0.1418973 2.302737
1.975321 0.3238311 1.978831
2.558412 0.540468 1.355867
2.419175 0.5036528 1.449736
2.418978 0.501909 1.456294
1.776949 0.1153949 2.316884
2.427584 0.505119 1.449759
2.434806 0.5066381 1.447873
2.700796 0.4549261 1.325409
2.428918 0.5068905 1.436825
2.441816 0.5083398 1.446475
2.712652 -1.31927 1.756939
2.68223 -0.707181 2.001201
2.694541 -0.5698719 2.006866
2.565858 -0.2816587 2.055593
2.735693 -0.5737273 2.004831
3.527277 0.6018107 0.959209
3.574941 0.6022087 0.9668487
3.490972 0.5931525 0.962123
3.531552 0.6099132 0.9705537
3.639361 0.6305403 0.9589143
2.668351 -0.2434883 2.093609
2.69215 -0.4869758 2.059334
2.764857 0.1775901 2.229488
2.770037 0.1787543 2.229552
2.783313 0.1807975 2.238736
2.222368 0.9594212 0.154696
2.461255 0.5751629 1.160451
2.230637 0.962116 0.1539327
1.941602 1.331687 -0.8417178
1.935299 1.320354 -0.8290197
2.383263 0.8722767 0.3589827
2.481602 0.7410725 0.722264
2.295141 0.8265678 0.3002366
2.398138 0.8455973 0.5682381
2.524837 1.179322 -0.4377224
2.470963 0.7341792 0.73039
2.296761 0.8253571 0.2923657
2.529283 0.7807008 0.7244713
2.809058 1.149878 -0.129927
2.727328 0.6957246 0.9626876
2.465769 1.273822 -0.7142004
2.431838 1.260571 -0.6976782
2.399846 1.245448 -0.6922907
2.549551 1.012192 0.02848809
2.685785 0.7897035 0.5962424
2.581384 0.9283046 0.1225189
2.723075 1.167716 -0.1543259
2.664941 0.9066031 0.2414219
2.536081 1.004997 0.003778399
2.534073 0.9775705 -0.07987927
2.573258 0.9921708 0.07987075
1.932952 1.207045 -0.5613416
2.418238 1.268725 -0.7035618
2.674045 0.9244614 0.2406085
2.842407 0.7714671 0.6299787
2.943824 0.6805531 1.06702
2.523546 0.9909449 0.01253225
2.504451 1.17496 -0.451039
2.926317 0.7282164 0.7816193
2.266245 1.472284 -1.288992
2.255578 1.4577 -1.279117
2.472343 1.485278 -1.257963
2.874098 0.9259744 0.2590678
2.447227 1.452012 -1.23081
2.869171 1.187962 -0.4334869
2.432937 1.437887 -1.210973
2.758326 1.104652 -0.2592527
2.662362 1.468388 -1.18465
2.603498 1.39524 -1.119895
2.657706 1.457683 -1.184994
2.480075 1.279298 -0.7004529
2.732501 1.277202 -1.438158
2.464803 1.468131 -1.237989
3.007578 1.382269 -1.020288
2.875989 1.198757 -0.4614485
3.277204 0.8224466 0.449627
2.533552 0.956946 0.09308156
2.772973 0.808844 0.568257
2.055191 1.220148 -0.514213
2.867509 0.7837408 0.6278216
1.988008 1.125877 -0.4552225
1.919079 1.29759 -0.811739
2.482566 1.087429 -0.1318282
1.903362 1.268261 -0.8020543
2.669084 0.9144036 0.2420106
1.892276 1.433037 -1.123558
1.875531 1.399626 -1.098873
1.877222 1.420658 -1.115536
1.824292 1.431678 -1.189342
2.477663 1.067956 -0.3603005
2.024701 1.196033 -0.4734219
3.016626 0.9145061 0.3411407
2.520189 1.203289 -0.4600323
2.420755 1.261499 -0.7017106
2.47626 1.167184 -0.3694235
3.178849 0.88232 0.3864624
2.765572 1.116435 -0.2609639
1.994268 1.560385 -1.567612
3.284997 0.9153979 0.2310114
3.282974 0.9549469 0.1491172
3.279269 0.9117932 0.233293
2.831889 1.426263 -1.103632
3.369497 1.206702 -0.4788319
3.415249 0.7523944 0.5962256
3.31072 0.8424261 -2.519536
3.361799 1.120063 -0.3343469
2.963634 1.559533 -1.823446
2.916593 1.487825 -1.677508
3.28524 0.8278251 -2.347738
3.370223 0.8885688 -2.426134
3.059775 1.122775 -0.501565
3.437893 1.293049 -0.9354279
3.273371 0.8277624 -2.482151
3.469198 1.198157 -0.5913532
3.230177 1.417677 -1.162114
3.412472 1.297093 -0.9199907
3.265869 1.424534 -1.1709
3.169089 1.32926 -0.9227491
3.544667 0.6101337 0.8507451
2.853383 0.7336503 0.8785166
3.554972 0.6188746 0.8685411
2.696701 0.7294663 0.8847979
3.002911 0.7166789 0.8699976
2.78126 0.655562 0.8821567
3.61746 0.6957274 0.8468878
3.630833 0.7094682 0.9107066
3.628826 0.7034205 0.8722529
3.634629 0.712431 0.9319853
3.62506 0.7038372 0.9165021
3.448302 0.9055432 0.3709947
1.320687 1.514889 -1.34997
1.341777 1.626101 -1.542312
1.31987 1.489493 -1.328921
1.332913 1.477977 -1.302206
3.574853 0.8945131 0.3302635
1.327675 1.503796 -1.340636
1.48404 1.506758 -1.296776
2.582651 1.174075 -0.4125221
1.477915 1.554908 -1.358063
1.463841 1.446489 -1.267602
2.82259 1.122055 -0.2424312
1.468643 1.484092 -1.297166
1.873544 1.417297 -1.106087
1.825651 1.475436 -1.222928
2.463854 1.230918 -0.6627636
2.801644 1.131073 -0.4215745
1.033886 1.837639 -2.014866
3.641098 0.8524351 0.3725429
1.036406 1.68575 -1.867712
1.644493 1.538525 -1.387991
1.655126 1.571878 -1.417589
3.680527 0.8690826 0.4563909
1.041963 1.7733 -1.950934
1.84975 1.484228 -1.229969
1.216349 1.689546 -1.83018
3.40122 1.158629 -0.359407
3.363176 1.203597 -0.4794686
2.890369 1.127259 -0.3957504
4.415751 0.9638982 0.1665711
1.607786 1.704135 -1.904133
2.166919 1.622095 -1.609048
3.397699 1.162156 -0.5744052
3.376726 1.141681 -0.5629761
2.463611 1.629713 -1.774986
1.961867 1.643576 -1.810419
1.999309 1.76026 -1.943696
1.571575 1.765191 -2.079619
2.844226 1.147378 -0.2481496
4.456977 1.130406 -0.2814778
4.084169 1.057873 -0.2847109
4.215293 1.060335 -0.3134617
4.292926 1.10719 -0.3272828
3.569323 0.9028268 0.3337128
4.167608 1.145231 -0.5946356
3.669751 1.26101 -0.8372828
3.717168 1.408794 -0.9651332
3.709918 1.319522 -0.8990716
4.014674 1.173954 -0.5317211
1.45677 1.689141 -3.423213
4.206051 1.157217 -0.5299418
4.190716 1.152119 -0.524147
4.07022 1.257256 -0.7607534
0.9904087 1.719901 -3.376202
2.919838 1.512555 -1.704195
0.9923345 1.705348 -3.360556
1.286814 2.021024 -3.511343
1.289812 2.001942 -3.458684
2.876504 0.4457728 -2.730571
4.119794 1.270561 -0.7684101
4.216383 1.097546 -0.4820528
4.151843 1.225821 -0.6230933
4.929528 1.03617 -0.1871706
4.092636 1.26537 -0.7696366
3.127156 0.3808821 -2.904067
3.549777 0.8698318 0.409493
4.077356 1.232955 -0.7426089
1.495707 1.322132 -0.809876
1.375834 1.339721 -0.8559662
1.371004 1.322208 -0.8453034
2.077268 1.270176 -0.5302714
2.075759 1.257243 -0.525729
2.050569 1.213689 -0.5017525
2.659461 1.00957 -0.07942717
1.928394 1.306689 -0.8334733
1.962512 1.698059 -1.872024
2.751082 1.108888 -0.2630474
1.953155 1.692106 -1.872895
2.0855 1.648325 -1.641827
2.05392 1.625795 -1.622614
2.032062 1.593658 -1.600607
1.989798 1.482633 -1.491474
2.236657 1.447835 -1.273028
2.05827 1.648355 -1.645512
2.006296 1.723163 -1.89374
3.209054 1.041326 -0.07852537
2.14159 1.516989 -1.492455
3.31024 1.118133 -0.116166
2.112492 1.618918 -1.616169
3.200291 1.262283 -0.608255
2.458657 1.471362 -1.24413
3.957938 0.731997 0.7249445
3.624385 1.009456 0.2439066
3.11524 1.207308 -0.5696013
3.926534 0.7222133 0.7297584
3.625584 1.00734 0.2393222
2.106175 1.527039 -1.520626
2.776578 1.891189 -2.447079
2.850584 0.8867821 -2.563628
2.938399 2.111679 -2.731894
2.757409 0.8275505 -2.427516
2.723285 0.7995457 -2.361143
2.789633 0.4140407 -2.657127
2.801785 0.7793002 -2.263791
3.23426 1.395802 -1.147223
3.114694 1.300007 -1.063242
2.651375 0.7258872 -2.229945
3.506035 1.243848 -0.8544221
3.201935 1.411449 -1.153269
2.883646 1.137408 -0.3860194
3.44631 1.101227 -0.2052307
1.547022 1.646191 -1.947722
2.848789 1.486405 -1.830086
3.213172 0.9054641 0.0932735
3.062394 0.514423 -2.759427
2.103368 0.5347296 1.404882
2.42849 1.198361 -0.4844292
2.717725 1.694452 -2.115139
1.26972 1.991224 -3.43497
1.281895 2.019682 -3.48958
5.47544 0.05446108 -0.566849
3.128622 0.3752563 -2.937707
2.853614 1.764504 -2.201087
4.993644 1.058139 -0.2106841
3.380002 1.010557 -2.353888
1.277043 1.962336 -3.390407
3.151804 0.3938667 -2.950387
3.145414 0.5113087 -2.938442
1.084246 2.01242 -3.432495
4.249411 1.166261 -0.6473632
1.327757 2.172097 -3.740652
1.083741 2.02357 -3.453813
3.18035 0.5886564 -2.883134
3.127881 0.5576944 -2.792051
3.262261 1.580046 -1.89246
3.687876 0.868852 0.4603538
3.705916 0.8959186 0.2335097
3.760086 0.9312894 0.2506816
3.818371 0.8600454 0.446872
3.779752 0.828274 0.4177086
3.761186 0.9998751 -0.05551665
4.080361 0.866355 0.5730241
3.956577 0.8107195 0.513962
3.783132 0.9631107 0.1591122
3.983552 0.8963874 0.4178749
3.78411 0.8336931 0.4237842
4.00592 0.7991353 0.6339614
3.107621 1.545615 -1.895961
3.804151 1.016471 -0.03698145
3.953822 0.8745763 0.3890797
3.804824 1.017995 -0.04126795
3.982062 0.8863946 0.3980802
3.983552 0.8840293 0.4041602
4.008507 0.8787819 0.3744749
3.999616 0.8932106 0.4137893
3.230664 1.072242 -0.2630737
3.393638 1.109614 -0.2806549
3.417392 1.126161 -0.2853944
3.249123 1.138541 -0.3608176
3.405531 1.118597 -0.2880597
3.425052 1.085559 -0.2338796
3.422445 1.188938 -0.4197
3.27672 1.167084 -0.4692912
3.647992 0.8878993 0.3864895
1.870801 1.455793 -3.968398
1.480067 2.002516 -3.445893
1.491799 1.742109 -3.508876
2.39299 0.7413172 0.8428785
1.399496 0.6262901 1.22132
1.109143 0.6140324 1.289689
3.567672 0.8511471 0.6338878
3.406714 0.8494091 0.5665729
3.458956 0.8329498 0.5306392
3.830232 1.078505 -0.3132766
3.353159 0.9706045 0.2990829
2.615685 0.5856443 1.16545
2.136204 0.7755869 0.8219355
4.376708 1.283496 -0.6291344
3.233706 1.446738 -1.221004
3.232522 1.445266 -1.220454
3.201728 1.421537 -1.212865
2.80998 1.485481 -1.766175
3.120475 1.549973 -1.908944
3.090581 1.519379 -1.874457
5.266814 0.1178942 -1.810484
5.253657 0.1104976 -1.807549
3.071002 1.471744 -1.839274
5.239682 0.176365 -1.848832
5.257275 0.1212526 -1.804041
5.294416 0.5543131 -1.554767
5.242245 0.5577763 -1.533487
5.150889 0.7127053 -1.552083
5.219967 0.5340893 -1.523288
5.234051 0.4905002 -1.670007
5.275877 0.4977876 -1.692934
5.219322 0.4845675 -1.66217
5.18168 0.9115518 -1.505938
5.218532 1.038589 -1.411628
5.196129 1.192889 -1.214397
5.382534 0.7376389 -1.64793
4.928187 0.2425749 -2.167021
5.183586 1.339655 -1.434205
5.295366 0.3212169 -2.384291
4.774031 0.2808821 -2.258742
5.082312 0.2702013 -2.262475
4.89829 0.7352087 -2.118937
5.107501 0.9316288 -1.672623
5.24247 1.04984 -1.420097
5.009346 0.4804769 -2.155654
4.845748 0.2943035 -2.308593
5.194532 1.036579 -1.403836
5.004543 0.9543825 -1.774829
4.925447 0.7424015 -2.131399
4.953366 0.6165547 -2.068421
4.443818 0.4764928 -2.927912
4.744793 0.9876668 -1.803168
4.900712 0.7425381 -2.118867
5.148946 0.9804268 -1.533541
5.240049 1.305229 -1.380219
4.946782 0.6438698 -2.046943
5.048534 0.8175413 -2.06993
4.995331 1.251145 -1.432843
4.58341 0.5053326 -3.067452
5.117308 0.9283606 -1.673566
4.795208 1.429577 -2.221149
4.846245 0.7884829 -1.934619
5.006413 0.7695764 -2.180982
4.979478 1.098927 -1.916781
4.759327 1.108474 -1.838421
3.923819 0.9391341 0.1809944
4.038988 0.9055634 0.3010902
4.041932 0.856972 0.4229009
4.012416 0.8435276 0.4169643
3.97627 1.023235 -0.013743
3.982506 0.9605421 0.2085477
4.008655 1.031583 -0.0007465993
4.093868 0.929818 0.2735311
3.95966 1.011587 0.003329327
4.148357 0.9584877 0.2853003
3.971324 1.016438 0.003049552
4.181323 0.9323894 0.2724528
3.718751 1.383045 -0.9600187
4.492861 0.6771241 0.9898582
4.466636 0.6626306 0.9757501
2.051032 0.7443372 0.8899906
4.304582 0.95502 0.3071879
4.36711 0.8257698 0.6439931
4.248414 0.9732674 0.04942141
4.121097 0.9236116 0.1643769
4.175421 0.9566539 0.1877576
4.251714 0.9926071 0.1830827
4.306397 1.001434 0.05496836
4.208567 0.9690196 0.1736658
4.283731 0.9945895 0.03238661
4.317258 1.004557 0.0446081
4.276355 0.9848642 0.03818265
4.165204 1.061487 -0.155454
4.261717 1.064624 -0.3375715
5.213111 -0.4757698 0.6028589
4.355304 1.157441 -0.3408795
4.220372 1.15413 -0.4220351
4.3289 1.153356 -0.3508298
4.337623 1.150069 -0.3406709
4.330929 1.14718 -0.3498301
4.489831 1.051546 -0.06161686
4.496765 1.00912 0.005690751
5.202846 -0.4666275 0.5992711
5.423166 -0.4687678 0.6642365
4.516512 1.04052 -0.06024845
5.434986 -0.4609488 0.6662037
4.687592 1.064148 -0.04279114
4.628843 1.061822 -0.07841752
4.632851 1.056712 -0.07844298
5.779032 -0.9831463 0.3067302
2.172917 0.7879925 0.7568545
4.754924 1.09312 -0.1178476
2.993471 0.1640587 2.266315
3.004599 0.2230387 2.345155
2.680165 0.8092646 0.7511359
2.199866 0.7631197 0.8356673
5.482535 0.9989496 0.002311248
5.488046 1.012883 -0.01421279
5.290455 0.9641816 0.2820686
1.231793 0.5715491 1.193171
5.438837 -0.6800721 1.184715
2.988813 0.7706487 0.8216216
5.480787 1.082667 -0.2042118
5.429225 1.062543 -0.2198191
3.12614 0.9827754 -0.2963883
4.878114 1.142219 -0.3432262
5.792672 -0.9768229 0.316515
5.793078 -0.8650092 0.0763083
5.833626 -1.030643 0.05286853
5.734388 -0.8084885 0.2589591
4.935936 1.170111 -0.3424345
5.307096 0.8864909 0.3551511
5.006558 1.200723 -0.3347647
4.926307 1.167827 -0.3425967
4.726594 0.5719403 -2.786578
5.476894 -0.04762924 -0.546095
5.565919 -0.02603904 -0.5499266
4.529068 0.9370427 -2.887479
4.999643 1.236466 -1.962548
4.643926 0.9867496 -2.992639
5.933083 -0.3235801 0.4274579
4.946212 1.215973 -1.937203
4.86368 1.048142 -2.498853
5.914733 -0.2238414 0.3960492
5.601462 0.5473927 0.03587369
5.508882 0.1059174 -0.4161774
5.023735 1.138996 -1.942917
4.825452 1.038741 -2.466802
5.909859 -0.3356449 0.4406112
4.867514 1.739579 -1.99868
4.828938 1.041824 -2.473737
4.79302 1.308275 -2.258187
5.502958 0.3152002 -0.2899109
4.978941 1.09262 -2.587947
5.925772 -0.3405896 0.4458669
5.716737 0.4402924 0.2543777
5.498907 0.5118179 -0.555621
5.417904 0.9802223 -0.006313996
4.750551 1.673343 -1.95535
5.894583 0.6574079 0.693193
5.524136 1.005504 0.04541767
5.60796 0.5438622 0.03870501
2.575207 0.7844262 0.8263837
1.892705 0.5661776 1.390776
1.788901 0.4936396 1.59798
1.890773 0.5668799 1.384081
2.476412 0.7360049 0.9567666
2.477376 0.7308568 0.9522948
2.563455 0.7915902 0.7645667
2.208154 0.6347378 1.187121
2.214737 0.6419143 1.204693
2.293545 0.6607502 1.138758
2.21101 0.63668 1.19348
2.579805 0.7985741 0.8372468
2.274991 0.641428 1.174397
2.282912 0.647179 1.190149
2.275021 0.6429765 1.163314
2.892755 0.8314768 0.6324746
1.709406 0.430607 1.751091
0.367837 0.6893658 1.559528
2.58806 0.51377 1.551244
1.787537 0.4968505 1.61522
2.274861 0.6475005 1.182299
2.511582 0.6980179 1.024667
3.062712 0.6136232 1.022732
1.006093 0.2593881 0.2120468
1.705281 0.4344825 1.762986
2.125228 0.5524371 1.410781
2.51447 0.7012468 1.036542
2.252103 0.5485813 1.422826
2.251229 0.549655 1.410529
2.250792 0.5457278 1.426902
2.228432 0.5151823 1.338469
3.089191 0.6164886 1.04811
2.711894 0.6989837 1.048251
1.961905 0.4768403 1.681771
2.979375 0.7727439 0.8036978
2.102731 0.7009292 1.022125
1.955369 0.4751447 1.634689
1.008307 0.261665 0.2101247
2.939657 0.7363943 0.8939456
1.957193 0.4766375 1.663975
2.715938 0.6932384 1.02842
1.979107 0.4805048 1.690372
2.89856 0.7355363 0.886371
2.999711 0.7605031 0.8549401
1.046589 0.5738149 0.3420407
0.6581575 0.5927222 1.370956
1.809436 0.5982661 1.307078
3.400039 0.8476375 0.5583827
2.954123 0.6132209 0.954632
2.556935 0.5215155 1.511749
3.212524 0.9997141 -0.09150799
2.047475 0.7506422 0.901171
3.733549 0.2925273 0.7913826
3.772191 -0.1109938 0.6810539
4.050941 0.9575534 -0.1251478
3.626053 0.6680449 0.8962117
4.272929 0.9901369 0.03233527
1.148994 0.6023294 1.243105
4.250255 0.9320804 0.2173735
4.108439 0.9306955 0.2715165
4.071477 0.9206154 0.3023563
2.59134 0.1414484 2.458728
2.554373 0.1396205 2.327494
4.140097 0.9111646 0.4798757
2.895919 -0.5867035 1.916097
2.934154 -0.5202396 2.014947
4.432016 0.9876308 0.2070916
4.323395 0.9595059 0.1254569
3.014164 -0.5489267 2.154908
2.95649 -0.524576 2.049458
2.241578 0.7427306 0.8450288
1.137093 0.5964116 1.264045
2.422933 0.8386861 0.6496909
1.934922 0.6679852 1.051092
2.20435 0.757153 0.8331462
2.233865 0.7732874 0.8326321
2.101884 0.7024742 1.021318
1.913731 0.6305459 1.21462
1.279774 0.6246606 0.1845177
1.042124 0.5748114 0.3472346
1.812211 0.5935792 1.272983
1.803442 0.5984372 1.306133
2.545513 0.796717 0.7604952
2.768844 0.8439417 0.6392964
0.6162086 -0.07905112 0.5546849
2.375994 0.8303627 0.6268186
3.253006 0.8826047 0.1766128
2.173031 0.7874139 0.7684142
4.811953 0.5384501 1.185104
4.974334 0.5871274 1.268596
4.811152 0.5548802 1.187668
0.5807818 0.02196559 0.320729
3.156341 0.8390864 0.2058247
0.5020953 -0.08223297 0.6001419
0.6920612 0.6839369 1.170142
0.8011609 0.5410246 1.45875
3.499019 0.8326754 0.3830175
4.309578 1.134421 -0.3394834
0.5622181 -0.07364316 0.5604821
0.5220001 -0.07738648 0.5705352
0.567583 -0.08267288 0.5808306
1.111254 0.615262 1.29301
0.6547432 0.2718943 0.6531606
1.372804 0.6095955 0.2547351
3.763816 -0.1083608 0.682385
3.762599 -0.1028269 0.6906016
2.552753 0.5275087 1.506415
2.947161 0.6489119 1.18689
2.673665 0.5666714 1.450906
1.151238 0.5424463 1.424086
2.951911 0.6544192 1.199503
3.022022 0.661209 1.150197
2.575762 0.5255796 1.523076
2.574694 0.5354632 1.614508
2.564647 0.5309594 1.512499
3.126313 0.6383045 1.093004
2.6742 0.5642542 1.447203
3.057273 0.6756516 1.166255
3.663299 -0.0224792 0.6827093
1.28797 0.5496383 1.337545
2.538677 0.5283623 1.519197
1.77912 0.6443709 1.186589
2.666857 0.5601479 1.4288
3.663072 -0.02057108 0.6759557
3.676376 -0.01998891 0.6900992
2.217096 0.6385557 1.226412
2.84882 0.488655 1.456008
1.355671 0.587101 1.360729
2.211213 -1.043052 2.246434
2.343825 0.5919351 1.378444
1.023737 0.2528732 0.2014104
3.113414 0.6328877 1.119803
2.215583 -1.055053 2.27995
3.641153 0.3733439 0.7793391
3.657709 0.3702918 0.7997773
2.214695 -0.8953345 2.363834
2.098768 -0.5048688 2.467586
2.199613 -0.7243003 2.341587
2.130765 -0.5034135 2.461784
2.20813 -0.7927973 2.353066
2.035937 -0.2941573 2.417124
2.115005 -0.503989 2.426204
2.014786 -0.3330168 2.528692
2.131125 -0.1070017 2.474149
3.969429 0.8736243 0.2650218
4.212146 0.9663191 0.1827529
3.624447 0.6928339 0.9131974
4.17037 0.9486032 0.1928025
4.416602 1.014637 -0.05954712
4.524611 1.025355 0.007187131
4.71474 1.070681 -0.02664888
3.895383 0.7587267 0.5794837
4.681841 0.9432449 0.2810712
4.755593 0.9696966 0.2991294
3.237907 0.1653454 2.895206
5.719841 1.087193 0.03617049
5.636214 1.150465 -0.1872643
5.301095 0.9177513 0.0890245
4.995481 -0.1150181 1.320971
5.464287 0.5794085 0.5326773
4.845945 0.5534256 1.197302
1.619814 0.4401048 1.744496
1.540482 0.3753731 1.745601
0.9983072 0.3536686 1.977648
1.101895 0.3139722 2.153965
1.144475 0.3017009 2.014386
1.38299 0.3247033 2.057563
1.281572 0.3031583 2.103532
0.7871124 0.2700392 2.196633
0.7118534 0.2833335 2.329321
0.7925972 0.3110245 2.103697
0.791955 0.3128871 2.10771
1.261688 0.301556 2.125361
1.157629 0.3061725 2.033621
0.7905235 0.3104993 2.117705
1.342221 0.3316678 2.163157
0.8047335 0.3138148 2.122518
0.8159294 0.3170085 2.112929
2.655042 0.3610177 2.007965
1.374367 0.3232716 2.060955
0.9236346 0.1735353 2.443248
1.616361 0.6535852 0.10435
0.9587464 0.1739233 2.386739
0.9375906 0.1748796 2.467727
1.020056 0.252503 0.2048658
1.336874 0.2220212 2.338063
1.240172 -0.8237956 2.531426
0.552094 -0.08263248 0.5834312
1.54954 0.656388 0.1034302
0.9517866 0.1780654 2.442193
1.338026 0.2173352 2.319388
1.722835 0.2294726 2.350759
1.243773 0.1619157 2.419567
2.207481 -1.358536 2.150749
1.220975 0.1570932 2.447966
2.135457 -0.1015801 2.466396
1.756909 0.2433546 2.322837
0.5454059 -0.08515413 0.5836613
2.118863 -0.6345589 2.323485
1.747764 0.08168691 2.622738
1.226763 -0.8212813 2.537039
2.010363 -0.1865931 2.546238
2.207387 -0.8570195 2.262031
2.219379 -0.8911695 2.343413
2.11368 0.1125426 2.495601
1.810187 0.6051818 1.320486
1.730869 0.7169312 1.015349
1.823989 0.5850033 1.273721
2.206701 0.5131235 1.597941
1.817057 0.5926316 1.313059
2.403236 0.5605587 1.355099
2.523638 0.5722971 1.248229
1.083185 0.5752528 1.550994
2.592155 0.5191112 1.56629
1.42458 0.5282645 1.530984
2.582984 0.5223463 1.576946
1.438827 0.5215141 1.537347
1.898373 0.5175714 1.496554
1.335764 0.4698355 1.673445
1.029899 0.4581235 1.69346
1.3297 0.4756063 1.685909
1.028852 0.4588026 1.688876
1.422614 0.3973052 1.989663
1.02653 0.4634034 1.702844
1.957613 0.4743696 1.677373
1.969439 0.4664606 1.525165
2.024362 -0.3359474 2.544256
2.121574 -0.5070473 2.44069
2.120103 0.1655967 2.481169
2.103205 0.131637 2.479357
3.012556 0.2255422 2.362324
3.011001 0.2260833 2.343511
4.921806 -0.08476163 1.293989
2.2047 -0.881636 2.333515
0.5636559 -0.9817528 2.959059
2.097485 -0.3149884 2.408864
2.118545 -0.6823424 2.498959
0.6312182 -0.9242017 2.779399
2.540202 0.5301675 1.523009
2.060971 -0.2468449 2.680778
0.4023459 0.008390559 2.726074
0.5898191 -0.9587364 2.912952
1.619003 0.6523185 0.111485
1.738649 0.1069456 2.60258
0.2715612 0.00659698 2.917848
1.622388 0.6500354 0.08943067
1.14386 -0.2193821 2.626968
1.325021 -0.6864306 2.692745
1.737634 0.06742264 2.689247
0.5682693 -0.9672999 2.977328
1.265983 -0.7445558 2.91205
1.455756 -0.4411462 2.546961
1.855467 -0.3518719 2.556578
0.6666124 -0.9766233 3.035248
0.6867249 -0.9541394 2.969739
0.7767767 1.016757 -0.2252157
0.6302833 0.2669565 -0.2041349
0.9741595 0.3400852 -0.01742198
1.019972 0.3440989 -0.05984429
0.9645244 0.3371259 0.002270052
1.311807 0.6611221 0.06361871
0.8255564 1.105071 -0.1696579
0.6909271 0.2764708 -0.07581613
1.420875 0.5952919 0.1396675
0.8107498 1.114831 -0.1524576
0.7820308 0.3758452 -0.1509734
1.271763 0.7073098 0.1097617
0.6659442 0.4963399 -0.9348515
0.7483074 0.3617792 -0.09580998
0.7138624 0.3628507 -0.07428129
0.7494827 0.273683 -0.1138876
1.262803 0.8152984 0.1165538
1.39368 0.6015474 0.2123971
1.405471 0.5943738 0.1968815
0.718798 0.2830437 -0.09737957
1.387732 0.6009415 0.2086795
1.270673 0.8133093 0.1036376
0.7659402 0.8825 -0.9825322
0.7302626 0.7123964 -1.073254
0.7887482 1.000122 -0.7770537
0.7445931 0.8497846 -0.8748183
0.8293729 0.1912664 -0.001963442
0.8207334 0.1877396 0.001972356
1.206872 0.6492087 0.03730133
1.186455 0.8421066 0.1081315
1.00976 0.6720062 0.05757653
1.029773 0.8464362 0.08908755
0.9732822 1.091067 0.04127719
1.041849 0.6641232 0.02013564
0.8265609 0.1877368 -0.003553292
1.019295 0.6662924 0.05048607
1.010989 0.6688243 0.05762322
1.019609 0.6691954 0.04960235
1.013117 0.670947 0.05735243
0.9979427 1.073265 0.01184761
0.8080453 0.1886806 0.01012997
0.6507376 0.373354 -0.5864813
1.021352 0.2502995 0.2032717
0.7357883 0.6373294 -0.8754601
0.8309865 0.6800334 0.04578248
1.003645 0.8564171 0.1128579
1.030444 1.04535 0.1182532
0.7219999 0.6326545 -0.8640009
2.136498 0.5405571 1.422885
0.05506361 -0.008272305 2.997413
-2.227817 -0.4875788 1.577327
-2.237832 -0.608649 1.844897
-2.381359 -0.437869 1.459904
-2.357355 -0.627116 1.92654
1.905257 0.5242255 1.504326
1.910593 0.5210517 1.499398
0.9750824 0.3370157 -0.01328478
1.968784 0.4637015 1.633671
1.97362 0.462906 1.638288
1.973863 0.4631058 1.623626
1.796468 0.4945255 1.623627
1.568015 0.6481071 0.07417676
0.6325794 0.5148987 -1.013777
0.7391155 0.8670028 -0.9416632
0.7976962 0.742076 -1.028452
1.625165 0.6487827 0.07482097
0.7154015 0.9325916 -1.324681
0.6170658 0.5239355 -1.027621
0.7082748 0.7698901 -1.179706
2.597559 0.123997 2.488938
1.466449 0.3884852 1.912696
2.212074 -0.8770769 2.278055
2.119169 -0.6720054 2.418218
2.202558 -0.9252498 2.421378
1.053898 0.6226641 0.1886094
0.8223146 0.6810299 0.05098066
0.8397351 0.6760792 0.04060335
0.8253134 0.681362 0.04859206
1.019427 0.6394576 0.2172
0.9638786 1.034164 0.1317908
0.7272952 0.6724984 -0.9781474
0.9682749 1.032816 0.1308785
0.7250932 0.8412596 0.09308688
1.279966 0.7028146 0.09754162
0.7449584 0.752351 -0.9902906
0.7445081 0.666633 -0.9745031
0.7247314 0.6380923 -0.8732078
0.7534626 0.7099499 -1.08395
0.7297248 0.6752209 -0.9805689
0.7109056 0.7324194 -0.9013804
0.7576631 0.8813313 -0.9800155
0.709549 0.6789464 -0.9616087
1.391562 0.3199241 2.037837
0.6186407 0.456461 1.710537
1.384613 0.3189097 2.040999
0.6449994 0.4565192 1.662248
0.6586215 0.4368943 1.682804
0.6531293 0.435677 1.697641
0.6837788 0.2733406 2.276091
0.4923918 0.350588 1.990244
0.4852856 0.3549685 1.991829
0.7667039 0.749678 -1.188324
0.7987999 0.7389719 -1.189182
1.632379 0.3059645 2.029253
2.106259 -0.6775162 2.435988
2.135664 -0.1253945 2.483486
1.64892 0.2966306 2.025599
1.387952 0.3183682 2.060212
2.115396 -0.002593461 2.503822
2.129259 -0.5094287 2.424819
1.112653 0.3076982 2.07227
2.121995 0.1511321 2.414013
1.481788 0.2931705 2.707216
1.149868 0.3032001 2.071796
1.158222 0.2976977 1.994197
0.6247599 0.4534707 1.710609
1.144458 0.3046039 2.104648
1.121162 0.2997259 2.103133
1.988201 0.1269192 2.488803
1.153024 0.3009999 2.041043
1.201121 0.2392987 2.237303
1.857556 -0.2945684 2.581643
1.477581 0.1945009 2.436749
1.476825 0.1902879 2.407593
1.49683 0.1978998 2.388596
1.472296 0.1935406 2.430837
0.8034893 0.3102089 2.089899
1.751775 -0.7513786 2.626595
0.9421651 0.1753906 2.464323
1.23339 0.03047141 2.78963
1.203944 0.02864218 2.864245
-0.5632798 0.1916751 2.444153
0.5333266 -1.038037 3.115253
2.56067 0.7913648 0.7603398
2.768608 0.8244252 0.5920988
2.578784 0.7594998 0.7515602
1.901287 0.7700392 0.8154745
2.874767 0.7689698 0.7233769
2.957339 0.774868 0.730744
2.009297 0.7672606 0.831616
2.913983 0.8014547 0.6199058
-0.9041847 0.6067919 -0.979492
3.864715 0.8187464 0.5614137
2.962454 0.7680812 0.7053227
-1.767121 0.6860117 -0.8490915
3.492923 0.8383411 0.422684
2.857632 0.8143731 0.5994813
3.755996 0.7452604 0.800971
2.826334 0.8252314 0.5841498
2.577329 0.7703775 0.7773409
2.865083 0.8198557 0.6059908
2.963026 0.7761313 0.7383146
0.743201 0.6367393 -0.8755113
0.7123244 0.7071787 -0.8035083
0.7355927 0.7085871 -1.075468
0.7651076 0.6809411 -0.9144537
0.7026933 0.667977 -0.6903476
0.7328807 0.7092072 -1.044038
0.6362681 0.5194571 -1.028628
0.6909434 0.5625646 -0.6525974
1.016316 0.3439798 -0.05828451
0.7282079 0.4982077 -1.057765
0.7434984 0.7065642 -1.077162
0.6697778 0.5304708 -0.5368203
0.7128121 0.7240561 -1.074382
0.7037891 0.9468849 -1.068457
1.031014 0.6644768 0.04630627
0.744364 0.6926122 -0.81163
0.6659042 0.8162226 -0.7327565
0.7158119 0.6058099 -0.7676809
3.457263 0.8295237 0.5580679
2.979352 0.750595 0.769129
3.589673 0.8398044 0.4830763
3.27295 0.8612846 0.4227117
2.86048 0.815989 0.5922146
0.9723541 0.7218678 -0.01599344
2.983125 0.7489554 0.7516504
2.894803 0.8142151 0.5738847
2.858958 0.8166474 0.5993461
3.822001 0.8204143 0.548352
0.3043818 -0.004444057 2.98667
-1.930644 -0.4916545 0.06014345
-2.160027 -0.7599457 0.04759331
-2.104933 -0.5199445 0.1158279
-1.571752 0.01248713 0.0995854
-1.889526 -0.6868073 -0.0324722
0.2990723 -0.01325027 2.971595
4.566207 -0.1331671 0.7347054
5.035934 -0.6408496 0.1774909
5.360553 -0.2836263 -0.01404787
4.736979 0.06821316 0.8149347
4.642694 0.4856155 0.7379639
4.826709 0.5684127 1.073517
4.755134 0.5433117 0.9588428
5.035779 -0.7936892 0.06664038
4.842237 0.5696891 1.021695
4.827673 -0.07170056 1.170169
4.958375 0.5998709 0.8907073
4.788068 0.5586657 1.043318
3.881574 0.4320881 1.328545
4.669855 -0.07081953 1.077926
4.638065 -0.08384562 1.154881
4.946167 -0.4234593 0.1913748
4.823407 0.4175946 1.309413
3.996659 -0.4329034 1.889779
4.661991 -0.060238 1.161526
4.754896 -0.09723447 1.396742
5.007634 -0.5086865 0.2113727
4.600001 -0.04999038 1.125887
4.350034 -0.1510144 1.475624
0.3552764 0.5222026 1.929733
0.7880477 0.7317451 -1.184899
3.863897 0.842473 0.5091772
3.590362 0.8368909 0.4841561
3.706412 0.7561629 0.7469923
2.975705 0.7528089 0.777191
1.902782 0.7743518 0.7987306
2.010133 0.7652077 0.8248844
5.145331 -0.3940424 0.3945361
5.511283 -0.7323766 0.6589508
5.509764 -0.7111876 0.6712506
5.404058 -0.6718462 0.5692589
4.803915 -0.9133007 0.5494533
5.42592 -0.6819458 0.5879309
5.170151 -0.3773354 0.4155839
5.14025 -0.3698341 0.4021671
5.432837 -0.4892019 0.6845044
5.43421 -0.4718642 0.6774349
5.420517 -0.4167775 0.6362345
2.933882 0.7475797 1.538602
4.948025 -0.3707632 0.5405445
5.171677 -0.7632272 0.2669613
4.800743 -0.4592062 0.6128842
4.811676 -0.4685806 0.6309005
4.777187 -0.4475165 0.5671849
4.960389 -0.373645 0.5527089
4.798756 -0.458448 0.608673
4.948023 -0.3689909 0.5386522
4.175007 -0.002975369 0.106748
5.050118 -0.4183903 0.7000458
3.127512 0.6369195 1.111271
2.696512 0.6596822 1.176253
6.122106 0.1385547 -0.2642531
4.526858 0.05716559 -0.03708733
3.485827 0.8088366 0.6028328
2.113166 0.7282598 0.9374107
4.374048 0.6548685 0.9611189
3.117475 0.6487327 1.187614
2.714454 0.6575904 1.03896
3.014295 0.6526815 1.096465
3.114327 0.6249878 1.068405
2.938527 0.6555407 1.082181
3.036784 0.6389877 1.103068
2.924679 0.6641944 1.071828
3.116879 0.6518286 1.184916
2.927715 0.6639487 1.084653
5.234396 -0.7836166 0.3401277
2.32326 0.6266914 1.201858
2.90773 0.6049477 1.166536
2.406399 0.617317 1.225903
4.802338 -0.09119248 1.334225
2.514703 0.5927408 1.338477
2.397811 0.5718973 1.332361
5.842927 0.7988777 -1.655444
4.617942 -0.07398608 1.36586
2.56011 0.5241141 1.496081
1.119688 0.5902538 1.378142
1.325739 0.5522764 1.460983
2.251817 0.5565829 1.394727
2.562048 0.5260853 1.445606
2.245556 0.5560925 1.43529
4.521332 -0.08098839 1.378598
1.916319 0.5555236 1.518483
2.246574 0.5628912 1.42034
2.804643 0.5586107 1.408607
4.428902 -0.09510682 1.401127
4.470485 -0.1625797 1.324422
2.534366 0.5366182 1.498965
4.187164 -0.2690921 1.387661
2.65879 0.5655254 1.426233
4.587434 -0.1804432 1.50509
2.042123 0.5318202 1.485801
1.421434 0.5278215 1.520332
4.544793 0.4154654 1.557494
4.14497 -0.1453679 1.510135
4.575034 -0.1965586 1.524947
2.809019 0.5337781 1.430419
4.254509 -0.2710163 1.636317
4.454948 0.4016231 1.772233
4.508265 0.4120232 1.878935
4.220737 -0.271197 1.58343
0.6356787 0.4527376 1.684511
1.741026 0.43592 1.695201
1.452573 0.3772304 1.882665
0.6896831 0.2726869 2.341648
0.4257513 0.2982448 2.069514
2.112584 0.14688 2.420025
2.151533 -0.2374369 2.445956
2.091713 -0.0007026168 2.604944
2.081552 0.1179028 2.615129
2.02011 -0.5547597 2.65993
1.868174 0.1066718 2.552652
1.746312 -0.04528346 2.687015
1.725249 -0.3973228 2.771673
2.08046 -0.5195641 2.492157
1.851261 -0.3594927 2.605709
0.8782303 0.180875 2.4905
1.205295 -0.5375493 2.533538
4.16222 -0.6692931 0.7255611
5.941066 0.7223932 -0.07057524
4.985429 -0.5981939 0.01073705
6.045441 0.1586501 -0.1065395
4.177617 -0.5757594 0.5331306
4.136438 -0.06540249 0.1149739
6.043475 0.1540004 -0.1028914
5.864158 0.7590311 0.09360018
4.155163 -0.5181895 0.7111017
6.002973 0.5899172 -0.2154112
5.798357 1.244023 -0.1724078
4.801877 -0.7622139 0.6225899
4.790621 -0.7403823 0.5852956
4.676246 -0.4396127 0.5401305
4.819255 -0.7799739 0.6554151
4.795919 -0.766159 0.6246152
4.805643 -0.7647867 0.6332351
4.795864 -0.7665567 0.6282755
4.80853 -0.7672384 0.6335003
4.727261 -0.4942742 0.6402125
4.732433 -0.4905684 0.6537493
4.720059 -0.4681737 0.6543591
5.001381 -0.6099288 0.04247727
4.721224 -0.4712937 0.6482045
4.764537 -0.4909058 0.6735215
4.770285 -0.4936657 0.6751308
4.720911 -0.470645 0.6592034
4.786013 -0.521289 0.7485375
4.850502 -0.491394 0.7043093
4.754397 -0.4771199 0.7157539
4.78216 -0.4713714 0.7866234
4.786096 -0.4713368 0.7936127
5.022598 -0.6432353 0.1213137
3.040123 0.6488978 1.16952
5.241288 0.7082486 0.4675946
2.504734 0.5882558 1.340679
3.127446 0.6437438 1.16772
4.374796 0.6080706 0.7101726
4.729972 -0.4706045 0.6598577
4.688718 -0.442774 0.5220031
4.740149 -0.4743446 0.606351
4.425865 0.6338734 0.8127804
4.762422 -0.4874241 0.6450125
4.404294 0.6307166 0.7881151
4.546066 0.6506411 0.671282
4.756812 -0.2583682 0.8173448
5.142872 0.5842163 0.7018453
4.587327 -0.1016766 0.8491105
4.664372 -0.1092925 0.7084256
4.80906 -0.07960445 0.9976172
4.899891 -0.2023642 1.220291
4.616734 -0.05270717 0.7837957
4.826149 -0.1326329 1.432806
3.896311 0.5160714 1.590898
4.809676 0.5875889 0.9443629
4.850866 -0.1330281 1.32455
5.039135 -0.2457253 1.471356
4.893174 -0.1287954 1.393651
4.016289 -0.2367777 1.450361
4.032295 -0.2563666 1.539631
4.783863 0.5356741 1.162519
4.046344 -0.1693642 1.66607
4.118365 -0.3126687 1.553818
4.829306 -0.1729666 1.691353
4.567906 -0.2114422 1.795813
4.705964 -0.2325274 1.520223
4.881488 -0.1709992 1.68875
4.032203 0.3663274 1.617229
4.547888 -0.2110252 1.784611
4.867247 -0.2018258 1.910526
5.013872 -0.1637774 1.730885
4.930336 0.4982879 1.691452
5.10245 -0.1584912 1.786395
4.90172 0.4891084 1.747637
4.425234 0.4192075 1.763067
4.157851 -0.6410376 0.7414342
5.321966 -0.4499535 0.6318805
4.666133 -0.444527 0.5064442
4.744501 -0.6577273 0.6031462
4.745154 -0.6594301 0.6088474
4.714162 -0.4613231 0.6479219
5.773821 -0.2683783 0.3355142
4.718096 -0.4396171 0.6748429
5.201882 -0.3500721 0.4421591
5.204526 -0.3542677 0.4496602
4.729348 -0.1853611 0.7051892
4.359302 -0.1672828 1.646827
5.889125 1.047489 -1.369071
4.492955 -0.1096537 1.268364
4.374858 -0.109039 1.419381
5.399446 -0.2850633 0.06252319
4.287924 0.03747243 -0.239029
4.705006 -0.1028882 1.396976
4.395969 -0.1364418 1.486371
4.517103 -0.08006809 1.297318
4.393958 -0.1092901 1.494522
4.443907 -0.1221655 1.333878
4.740758 -0.08592004 1.294185
4.740956 -0.090151 1.190135
4.698733 -0.04159389 1.160893
4.59123 0.7234936 0.237045
4.55129 -0.1253006 1.440592
4.554427 -0.144219 1.626124
4.362748 -0.1342952 1.57043
4.123068 -0.1623968 1.826715
5.064771 -0.9107165 0.1216945
4.650835 -0.1557937 1.429837
4.847538 -0.1128181 1.233024
4.20907 -0.1996647 2.127985
3.942906 0.4570822 1.787744
4.999051 -0.6133066 0.03834949
4.509066 -0.1834978 1.53743
4.585086 -0.1487172 1.355043
4.184776 -0.181868 1.933075
4.867998 -0.1046186 1.226092
4.772369 0.5505571 0.9884431
3.867023 -0.1812183 1.314689
4.315397 -0.08385576 1.15867
4.016694 -0.1895954 1.44882
4.550557 -0.08086567 1.241119
4.935546 -0.3848909 0.178175
3.700059 0.5536067 1.938435
4.069551 -0.1496308 1.479684
4.404048 -0.1273483 1.284733
4.524179 -0.0837478 1.024162
3.938646 -0.1681805 1.627351
3.941113 -0.214419 1.653953
4.386104 0.04243613 -0.3481814
4.163017 -0.1294546 1.436774
4.840041 -0.1368818 1.414817
4.433709 -0.1471677 1.563912
4.508748 -0.2055046 1.674533
4.35419 -0.2345017 1.804084
4.632715 -0.1624383 1.466154
4.803979 -0.1059891 1.335939
4.639307 -0.1704174 1.576568
4.666366 -0.1713223 1.571167
4.648076 -0.1703472 1.579082
4.082377 -0.2435518 2.071007
4.453825 -0.2502734 1.980965
4.555179 -0.1660724 1.440458
4.610365 -0.1622619 1.473765
4.2975 -0.1962191 1.880676
4.600812 -0.1888768 1.66367
4.71663 -0.1511683 1.499055
4.630599 0.420892 1.622586
4.850926 -0.1650813 1.711427
4.640955 0.4450501 1.571507
4.685823 0.4519757 1.565072
4.590416 0.434339 1.570769
4.619941 -0.2017882 1.777334
4.106367 -0.320852 2.343853
4.497183 0.4172369 1.578094
4.372365 -0.2855138 2.149064
4.500588 0.4156164 1.587766
4.733127 0.4630073 1.567691
4.705452 0.4566754 1.637838
4.593892 0.4319277 1.590361
4.546536 0.4272064 1.587273
4.335996 -0.3239941 2.478107
3.964483 -0.2521547 1.591192
3.820447 -0.4802207 1.822608
4.497612 0.6954938 0.05578952
4.546761 -0.0654038 1.236681
3.984114 -0.213052 1.663685
4.029492 -0.1570989 1.514546
4.078834 -0.1658347 1.589643
3.901811 -0.2181523 1.596362
3.89961 -0.1754345 1.53609
4.373962 -0.1030986 1.032897
3.91993 -0.2205234 1.661064
4.641907 -0.08649001 1.171251
4.450818 -0.1477994 1.111227
4.302468 -0.167865 1.207344
4.393764 -0.1242301 1.253395
4.24037 -0.1671432 1.528131
4.521624 -0.1031638 1.231324
4.184843 -0.1857702 1.649864
4.580817 -0.08754688 1.103736
4.380378 -0.09855747 1.364961
4.423049 -0.1321111 1.185052
4.000624 -0.2678569 2.106065
3.958486 -0.2292667 1.801925
3.918674 -0.2130769 1.619955
3.86533 -0.2593034 1.818968
4.511096 -0.1616523 1.370535
4.216309 -0.1318299 1.17339
4.77745 -0.1233811 1.27882
4.074806 -0.1612767 1.625926
4.23617 -0.2164111 1.518024
3.853753 -0.4069271 2.017886
4.290371 -0.204078 1.473908
4.667985 -0.09562321 0.187523
4.578141 -0.1362556 1.208332
4.024526 -0.2929438 1.978003
3.948329 -0.480846 2.18685
3.840526 -0.49298 1.986739
