# .PCD v.7 - Point Cloud Data file format
VERSION .7
FIELDS x y z
SIZE 4 4 4
TYPE F F F
COUNT 1 1 1
WIDTH 1640
HEIGHT 1
VIEWPOINT 0 0 0 1 0 0 0
POINTS 1640
DATA ascii
-1.414225 1.56743 0.02252629
-1.401857 1.562507 0.06614114
-1.26938 1.46985 0.04720945
-1.191531 1.409986 0.05434059
-1.234151 1.456546 0.1786242
-1.27377 1.475628 0.2369236
-1.020516 1.306149 0.09653869
-1.264383 1.47495 0.2493791
-1.292619 1.445911 0.138687
-1.270173 1.471901 0.2440625
-1.011647 1.304518 0.1051591
-1.257743 1.47031 0.2597728
-1.015619 1.306032 0.1015371
-1.382072 1.501663 0.02435713
-0.7633603 1.136866 0.06580306
-0.7586399 1.136215 0.06869067
-0.8995276 1.20654 0.1316403
-0.8232766 1.190016 0.5862448
-0.8269513 1.169329 0.451857
-1.099263 2.251139 1.746797
-1.286915 1.439189 0.1604139
-1.512406 1.549855 1.918953
-0.4234358 0.9499816 1.313634
-0.8684285 2.224232 1.432578
-0.4382857 0.9524761 1.297395
-1.676774 1.083886 2.303825
-1.927044 2.846136 2.475376
-1.987841 2.97413 2.802852
-1.990242 2.985637 2.820111
-1.398927 2.596172 2.991337
-1.043438 1.271836 0.01195915
-0.821125 1.154983 0.06632954
-0.7688794 1.102298 -0.00144601
-1.092456 1.319475 0.3537104
-0.9070306 1.192927 0.2871546
-0.7259127 1.088596 0.1872769
-0.7134053 1.076041 0.2793831
-0.8190907 1.135151 0.3891256
-0.8342603 1.133699 0.3885505
-0.7782586 1.129109 0.6361002
-0.7605754 1.12481 0.644982
-1.456732 1.550575 -0.08029919
-1.182396 1.385278 0.2761107
-1.40868 1.519774 -0.01056963
-1.179418 2.19224 1.413198
-1.350559 1.495608 0.03996171
-1.299479 2.081086 1.552779
-1.303616 1.989441 1.65171
-1.259502 1.458815 0.1175729
-1.885641 1.208201 2.16468
-1.324671 1.969851 1.611515
-1.332434 1.94978 1.590995
-1.446134 1.802505 1.726649
-1.286806 1.457428 0.1277281
-1.703605 1.537737 2.081914
-1.165317 1.885221 1.630861
-0.3804129 1.977514 0.9468908
-1.201459 1.378144 -0.03358091
-1.166008 1.860373 1.697802
-1.297481 1.55887 0.07919792
-0.3972762 1.971932 0.9253113
-0.4268776 1.96249 0.9171522
-0.394042 1.969771 0.9382202
-0.3876803 1.975757 0.9431131
-0.9234869 2.067115 1.615341
-0.6231309 2.041625 1.504293
-1.879367 0.9018036 2.409567
-1.316216 1.470921 0.08727922
-1.846918 0.8901397 2.494239
-1.698559 1.070372 2.287335
-1.679849 1.060904 2.345936
-0.4846509 0.9586324 1.173896
-1.359359 1.486414 0.006693774
-0.468132 0.9423074 1.208512
-1.304533 1.407087 2.01934
-1.134146 1.57843 1.852509
-1.30381 1.405352 2.014326
-0.5883052 2.046984 1.523157
-1.139356 1.569321 1.849905
-1.313542 1.403738 1.993757
-0.7725806 1.906001 1.651668
0.08536532 0.598693 0.7257375
0.1419677 0.5733578 0.7598508
0.1010457 0.5947677 0.722616
0.08875865 0.5973468 0.7112677
-1.300141 1.995271 1.694409
-1.236003 2.003169 1.812602
-1.949478 1.270578 2.286434
-0.9585039 2.186459 1.300414
-1.431928 1.797415 1.862475
-0.4289384 0.9540256 1.306621
-1.045768 2.016555 1.472252
-0.9671412 2.155296 1.678465
-1.30038 1.987913 1.749285
-1.018141 2.033167 1.534503
-1.429154 1.812953 1.83472
-0.9912589 2.049034 1.587787
-0.387078 0.9387667 1.362545
-1.408902 1.80207 2.02033
-1.065874 1.921516 1.874992
-1.322852 1.665201 2.010385
-1.010708 2.13201 1.594042
-1.041177 2.025659 1.484791
-1.392391 1.821652 1.991742
-0.9801574 2.054958 1.614008
-1.308175 1.733426 2.065156
-1.138087 1.867761 1.861045
-1.667863 1.075698 2.339039
-0.5477666 2.082605 1.674682
-1.081059 1.586746 2.070191
-1.144669 1.58407 1.901934
-1.309869 1.413721 2.071665
-0.7882541 1.915399 1.694915
-0.5815045 2.086246 1.643924
-1.234985 1.543341 1.958969
-1.313977 1.421075 2.079542
-1.626714 1.047656 2.660016
-0.5683799 2.090436 1.661696
-0.9544622 1.549119 2.09895
-1.028194 1.283 3.067082
-1.654052 2.747577 2.901886
-1.830566 2.749905 2.647202
-1.420225 2.559456 2.862373
-1.595909 2.686728 2.911625
-1.161638 2.452244 2.791796
-1.595288 2.69244 2.933467
-1.412565 2.216654 3.284821
-1.704092 1.044165 3.1968
-1.440077 1.90521 2.823163
-1.574742 2.655675 2.810522
-1.123875 1.578041 1.878176
-0.799202 1.903688 1.61739
-1.368347 1.496115 0.02960234
-0.4888411 0.9529101 1.186899
-0.6059362 2.041513 1.502856
-1.413309 1.514995 -0.008317432
-0.5584367 2.085961 1.582209
-0.7564131 1.958043 1.648068
-1.298543 1.471274 0.1002789
-1.025109 1.550309 1.962342
-0.700687 1.860813 1.697732
-0.5741761 2.077394 1.563541
-1.059813 1.545975 1.923693
-0.263156 1.967888 1.821635
-0.6844163 1.872319 1.717865
-0.7717329 1.701216 1.886323
-0.94678 1.670576 1.702154
-1.371269 1.499099 0.03003954
-0.6454384 2.040623 1.479255
-1.412839 1.526427 -0.01790792
-0.5868138 1.830749 1.786899
-0.8102621 1.686071 1.842543
-0.618189 1.814907 1.747573
-1.358932 1.49535 0.04190597
-0.6111185 1.814191 1.745686
-0.3763629 1.936424 1.66919
-0.4174131 1.923725 1.621702
-0.3992225 1.93806 1.65234
-0.3600501 1.946081 1.671514
-0.3680836 1.939723 1.684499
-1.175633 1.369223 0.3013028
-0.4244119 1.930443 1.643099
-1.195809 2.421895 2.629641
-1.698447 1.038786 3.253023
-1.385207 1.509845 0.009578385
-1.380282 1.521425 -0.01571667
-1.680106 1.025088 3.37238
-1.207586 2.224483 3.333288
-1.408709 1.527158 -0.02342447
1.520027 -1.613569 1.02685
0.03051879 1.665148 2.44072
0.06781606 1.664923 2.48955
1.405131 -1.513598 0.9726302
1.380129 -1.494577 0.9668258
-0.9254654 0.9698445 3.491639
0.2110037 1.591918 2.526793
-1.302016 1.488065 0.06897826
0.2390401 1.552071 2.420159
-1.106709 1.602857 2.038509
-0.5713245 2.079513 1.669537
-0.7980074 1.688009 2.138002
-1.045967 1.547637 1.99303
-0.4061001 1.93675 1.702591
-0.4055703 1.938896 1.710243
-0.4293587 1.929435 1.668202
-1.729923 2.152724 2.385441
-0.4265132 1.930677 1.664904
-1.90982 2.405908 2.625779
-1.819603 2.916257 2.822206
-0.3759444 1.657481 2.751208
-1.535839 2.326317 3.401017
-1.662051 2.173517 2.651782
-1.540525 2.256627 3.117125
1.79631 -1.48399 1.126294
-0.5402725 1.850033 1.852063
-1.392866 1.510682 0.009030372
-1.404675 1.516121 -0.0415372
-1.472849 1.192563 3.351217
-1.718236 1.013453 3.162338
-1.286473 1.441903 0.1482406
-0.9153906 1.185836 0.2123335
-0.8060184 1.152369 0.3691394
-1.230486 1.573249 0.08785927
-1.360193 1.498623 0.01651155
-0.4838419 0.8707203 0.06598133
-0.3550143 0.8406894 0.07879954
-0.7305523 1.113847 0.6627346
-1.323944 1.470166 -0.06071724
-1.337704 1.483578 0.06309792
-1.371146 1.506645 0.00903803
-1.411509 1.81846 1.838593
-1.261357 1.574469 0.07768977
-1.346356 1.621374 -0.02385381
-1.368503 1.483056 0.05752956
-1.427576 1.523434 -0.01297704
-1.302554 1.456124 0.1305783
-1.361266 1.706035 1.705778
-1.277884 1.575935 0.07432617
-1.422459 1.534258 -0.04240236
-1.343688 1.70311 1.700514
-1.323092 1.471003 -0.06208608
-1.334098 1.480356 0.05963659
-0.6494551 1.054661 0.9977096
-1.463739 1.557177 -0.1006962
-1.412475 1.525048 -0.01739884
-1.293807 1.45147 -0.005805661
-1.110474 1.571461 1.906833
-1.136694 1.567654 1.860195
-0.4733804 0.9467903 1.200287
-0.4906442 0.9526573 1.190413
-0.2431102 1.448328 1.08024
-1.322252 1.462531 0.1251285
-1.288255 1.426046 0.06648169
-1.25746 1.411964 0.2102055
-1.337671 1.468513 0.1044326
-1.263794 1.432236 0.06492362
-1.145943 1.510727 0.2347261
-1.325105 1.483855 0.1065904
-1.136024 1.345797 0.3528512
-1.295371 1.596154 0.05353976
-1.071977 1.295249 0.2583708
-1.249686 1.423536 -0.04902451
-1.153091 1.363157 0.3159337
-0.997501 1.280958 0.5038588
-1.198272 1.398228 -0.07010259
-1.264229 1.557067 0.1034715
-1.448348 1.54748 -0.07237403
-1.206309 1.578377 0.08604379
-1.281326 1.599254 0.06451822
-1.241139 1.438271 0.04531498
-1.159622 1.359919 0.315073
-1.324597 1.472471 0.09743697
-1.215629 1.533442 0.1856002
-1.280884 1.444816 0.0352396
-1.261345 1.572822 0.07926717
-0.8673032 1.651677 1.90466
-1.427057 1.5348 -0.03903797
-0.7679749 1.91587 1.664486
-0.407669 1.968919 0.9360406
-0.6362864 1.829139 1.738631
-1.358933 1.633412 -0.03611948
-1.33764 1.482139 0.0723324
-1.330747 1.470468 0.09148184
-1.260009 1.575093 0.09684934
-1.315754 1.461527 0.1263922
-1.240398 1.555228 0.1044814
-1.452776 1.546191 -0.06893339
-1.281879 1.425399 0.1993081
-1.264569 1.59185 0.08896647
-1.273737 1.59338 0.07716007
-1.254581 1.432646 0.1970817
-1.287776 1.422543 0.1961278
-1.12003 1.331217 0.4021151
-0.9287429 1.215422 0.2622071
-0.9025354 1.355263 0.5697541
-0.9405606 1.362219 0.546012
-1.355647 1.483618 0.07181846
-0.8848634 1.188211 0.4625175
-0.9001547 1.202733 0.6508211
-1.359229 1.493568 0.03719946
-0.8813947 1.164921 0.3639935
-0.8746884 1.198904 0.6616725
-1.276867 1.594979 0.07875145
-0.8968332 1.203301 0.6530789
-0.8579804 1.307184 0.6533803
-0.8323833 1.148656 0.3951813
-0.802174 1.140029 0.6126017
-0.7913264 1.137716 0.6177276
-0.6224415 1.782003 0.5388631
-0.6579778 1.510669 0.6804703
-0.631412 1.045081 0.3819845
-0.6230977 1.049674 0.996963
-0.4618673 1.920456 1.641234
-0.3077248 1.464748 1.001481
-0.4248511 1.466222 0.9427188
-0.4631199 1.196381 1.134168
0.0201089 1.49192 1.242936
-0.06993817 1.449841 1.222364
-0.08081376 1.676876 1.179812
-1.253566 1.410549 0.2347361
-0.06796955 1.678967 1.146903
-0.05582911 1.681434 1.153192
0.05680856 1.687244 1.253599
-0.2140747 1.465844 1.111563
-1.258651 1.591763 0.08543133
0.02151654 1.620955 1.247361
-1.470674 1.560091 -0.09158034
-1.313127 1.460194 0.1206975
0.1093911 1.609671 2.361576
-1.337385 1.625399 -0.02637578
-1.349776 1.630017 -0.0189032
-1.140073 1.36319 0.02787013
1.329624 -1.128844 -0.3363921
1.262944 -1.070208 -0.3204465
1.189899 -1.014647 -0.3140806
1.360723 -1.118116 -0.3527135
1.417832 -1.037582 -0.287077
1.489621 -1.071039 -0.2847873
-0.1174818 1.711008 1.067984
-0.8242877 1.683588 1.876955
-0.1788945 1.455071 1.103653
-0.7153966 1.845551 1.670824
-1.232108 2.211947 3.250543
-0.9763889 0.8658411 3.511359
0.161348 1.67529 2.588931
0.2535805 1.524087 2.397855
-0.9826341 0.3772096 3.762649
1.620043 -1.55024 1.060937
0.4908181 1.530319 2.726205
-1.145951 1.35824 0.3643643
-1.284385 1.600998 0.06650109
-1.128887 1.356495 0.4048902
-1.145856 1.359211 0.3637579
-1.123052 1.356754 0.4124984
-1.148954 1.359714 0.3637401
-1.148148 1.359593 0.3639832
-1.175136 1.377107 0.3302861
-1.17405 1.376076 0.3309992
-1.209196 1.533754 0.1855938
-1.417245 1.517862 -0.1308572
-1.16182 1.371157 0.3001932
-1.142012 1.356847 0.3353936
-1.168152 1.361183 0.3288501
-1.411137 1.526334 -0.08885898
-1.427136 1.540479 -0.03276872
-1.124056 1.471482 0.321878
-1.069372 1.335808 0.3839031
-1.134123 1.334956 0.3756082
-1.105674 1.326925 0.3888057
-0.9797673 1.627688 0.3216607
-1.051895 1.300015 0.4572134
-0.9890496 1.6227 0.3350175
-0.9736601 1.625277 0.3320254
-0.9881022 1.62189 0.3336231
-1.228126 1.412557 0.2233836
-1.004492 1.255786 0.1711041
-0.9969809 1.252507 0.168632
-1.026482 1.281587 0.4977509
-0.9043226 1.583431 0.420267
-0.9319762 1.372567 0.5239685
-0.8650579 1.595148 0.4298918
-0.9495735 1.216286 0.2594194
-0.9378992 1.217132 0.2593154
-0.4045486 1.941044 1.680493
0.2009729 1.589075 1.31753
0.2576748 1.52108 2.401764
0.421094 1.495232 2.539763
0.6443927 1.208586 2.428379
-0.3959867 -0.041767 3.997522
-0.1415298 0.7137037 3.755684
1.027508 1.174237 2.773931
-0.09565944 0.7288327 3.834078
0.01765462 0.6845667 4.066215
-0.148371 0.7429041 3.721302
0.6999476 1.209542 2.417176
0.885384 1.267678 2.695403
-1.241166 1.412217 0.2369784
-1.412504 1.5277 -0.08874576
-1.226905 1.403286 0.2410239
-1.217833 1.399502 0.2365851
-1.199714 1.406207 0.2359914
-1.212014 1.395235 0.1457822
-1.238067 1.401366 0.24986
-1.483007 1.560956 -0.107969
-1.226883 1.393532 0.1476848
-1.210387 1.518215 0.195441
-1.480061 1.56335 -0.1122884
-1.165 1.376999 -0.1954934
-1.402062 1.525492 -0.02055032
-1.170347 1.376081 0.2839864
-1.163347 1.364539 0.207846
-1.193594 1.377766 0.2959353
-1.472494 1.561909 -0.08951171
-1.097251 1.466087 0.3294663
-1.063188 1.685387 0.2076732
-1.10147 1.464421 0.3303918
-1.071211 1.685467 0.2181428
-1.188459 1.518592 0.2093941
-1.12271 1.473207 0.320329
-1.470281 1.561105 -0.09165173
-1.372848 1.618126 -0.01593301
-1.096833 1.46417 0.3330284
-1.086867 1.306944 0.06433275
-1.445106 1.551612 -0.08753328
-0.9733056 1.428799 0.4154506
-1.351277 1.624068 -0.0323055
-1.446339 1.546533 -0.07256003
-1.07167 1.305865 0.457431
-1.048788 1.689102 0.208133
-1.097638 1.306166 0.4592479
-0.9989207 1.269218 0.5477682
-0.9764777 1.260257 0.5487922
-0.9459372 1.372586 0.5211303
-1.285882 1.428404 0.1842175
-0.9358187 1.36162 0.5440762
-0.9288303 1.359895 0.5531091
-0.911486 1.35742 0.5599889
-1.38361 1.493352 -0.04364118
-0.8958724 1.200864 0.6530432
-0.8628123 1.162244 0.3588814
-1.122335 1.338185 0.4035209
-1.152617 1.375907 -0.1257235
-0.6539654 1.510872 0.6806996
-0.8001756 1.140671 0.6105022
-1.282046 1.434436 0.1709886
-1.283 1.436567 0.1987679
-0.6137469 1.487608 0.7342207
-1.363297 1.489245 -0.2486733
-0.1852818 1.454008 1.164299
0.001308931 1.561761 1.210445
-0.07836472 1.470869 1.211888
-0.07829809 1.484541 1.212965
-1.110482 1.327796 0.3894851
-1.080885 1.305076 0.4682594
-1.267899 1.43682 0.1607916
-1.313697 1.61268 -0.001933227
-1.016082 1.272376 0.5168185
-0.8998262 1.588369 0.4207668
-0.9434967 1.226275 0.1714407
-1.292742 1.455488 0.05061887
-1.290659 1.45028 0.1111616
-0.9673851 1.222778 0.2603775
-1.191043 1.384083 0.3069044
-1.227142 1.432405 0.2286471
-0.8854524 1.184756 0.6918504
-0.8504027 1.167711 0.5549676
-1.248982 1.426624 0.2401717
-0.6751527 1.507717 0.678994
-0.07629176 1.438739 1.208204
-0.22483 1.454181 1.143093
-0.03956271 1.448023 1.223839
-1.176398 1.377403 0.3285553
-1.391075 1.527239 -0.06095209
-1.280565 1.438493 0.1549662
2.577692 -2.142409 2.433198
1.057586 -0.6230215 2.400735
1.347703 -0.5619842 2.447036
1.076899 1.125489 2.361197
1.277947 -0.2108016 2.482395
1.622283 0.7022369 2.525826
-1.088091 1.341569 0.4535871
-1.308373 1.505139 0.1219591
-0.9453029 1.216437 0.630415
-0.9002371 1.199924 0.6676078
-1.112884 1.336773 0.4036588
-1.119081 1.355217 0.4118618
-1.131408 1.344509 0.3827918
-1.313034 1.46699 0.1541521
-1.0816 1.31456 0.4586142
-1.209536 1.521771 0.2096569
-1.164391 1.361673 0.3320917
-1.169467 1.381476 0.3323709
-1.249598 1.427866 0.2388293
-1.161613 1.504108 0.2537519
-1.338806 1.480346 0.1237687
-1.112246 1.334364 0.4186472
-1.129267 1.477916 0.3098515
-1.121974 1.469771 0.3233276
-1.058645 1.336743 0.449962
-1.060926 1.297994 0.4555239
-1.292191 1.447625 0.1757255
-1.060976 1.297155 0.4464747
-1.250924 1.430317 0.2381676
-1.197236 1.389991 0.302073
-1.339019 1.479498 0.1242105
-1.251484 1.42965 0.2391528
-1.019472 1.25013 0.582029
-0.8821878 1.190789 0.07228835
-0.8850121 1.190242 0.07479221
0.009249348 0.7172813 -0.01724015
2.032906 -1.026758 0.9423423
2.032056 -1.027747 0.9439248
2.013659 -1.012907 0.935282
1.462371 -0.8730108 -0.3941694
-1.197082 1.391089 0.3000736
-1.251059 1.431212 0.2375764
-1.294254 1.44876 0.174334
-1.281655 1.452875 0.1973113
-0.9830399 1.630001 0.3221866
-1.317189 1.460331 0.1513193
-0.9747876 1.631788 0.322651
-0.9690272 1.632321 0.3417032
-1.285482 1.451863 0.1991566
-1.33875 1.479873 0.1248316
-1.338898 1.48002 0.122864
-0.2671169 0.8485485 -0.03940938
2.518197 -1.278121 0.9842179
-1.335002 1.479491 0.1229542
-1.282843 1.452134 0.1985253
2.311923 -0.2997902 -0.4537615
2.06532 -0.1691333 -0.4013072
-1.173893 1.368012 0.2871467
-1.170151 1.367948 0.2866707
-1.121006 1.339924 0.3910319
-1.11715 1.338832 0.3930628
-1.132295 1.490427 0.313508
-1.09171 1.324812 0.4331565
-1.093807 1.323668 0.4327698
-1.083843 1.313607 0.4582055
-1.175972 1.376997 0.3292112
-1.178887 1.372159 0.2322371
-1.189916 1.383255 0.2115207
-1.194256 1.390645 0.3011541
-1.068229 1.304065 0.4040275
-1.133003 1.340818 0.1931539
-1.176717 1.376423 0.3288421
-0.9776174 1.381596 0.5269374
-1.175558 1.376727 0.3317219
-1.051615 1.291148 0.2525191
-1.206547 1.39741 -0.1129677
-0.9628927 1.238113 0.4066555
-1.14864 1.375823 -0.08748215
-1.02029 1.272401 0.1466605
-1.018002 1.271499 0.1447436
-1.01206 1.265255 0.1716721
-1.01097 1.266497 0.1711307
-1.021245 1.271578 0.146668
-1.25498 1.427722 0.2272782
-1.174066 1.382161 -0.2906993
-1.009803 1.269015 0.08076105
-1.135417 1.362009 -0.2232028
-1.003767 1.267017 0.0583899
-0.8639096 1.176315 0.3317584
-0.8669717 1.177402 0.3315635
-0.8655679 1.177942 0.3326344
0.04899184 0.6590327 0.5990775
0.04417913 0.6611422 0.5991578
2.014309 -0.458146 1.653783
2.025806 -0.4624721 1.660452
-0.3789719 0.9207147 0.5986513
2.120171 -0.1287485 1.226874
2.057295 -0.4279331 1.308774
-0.3830786 0.9271348 0.5826797
2.335468 -0.6681542 0.4154171
1.846397 -0.3688851 0.2855577
1.342614 0.9130366 -1.902133
1.200763 0.924862 -1.753327
-0.4288972 0.9640198 0.6225857
-0.4797007 1.00041 0.2785895
1.213704 1.006062 -2.094342
-0.1652707 0.805839 0.5151788
-0.3769847 0.9337196 0.5028458
-0.3922774 0.9453292 0.4434443
2.572314 -1.808725 1.089505
-0.4800157 1.000586 0.2791965
1.252738 1.027941 -1.603992
1.220087 1.027069 -1.76254
-0.4742213 0.9920202 0.259271
-0.4013472 0.9459777 0.4422116
1.644852 -0.5126527 1.792205
-0.3928828 0.9435858 0.2702087
-0.354811 0.916068 0.4466045
-0.3503607 0.9163557 0.4468114
-0.3077838 0.8869406 0.4941778
-0.1362114 0.7864361 0.5646142
-0.2090939 0.8225169 0.5527831
1.326047 0.9246941 -1.284302
1.678157 -0.5200395 1.803661
1.659136 -0.5212216 1.798652
1.151823 1.278664 -2.969908
-0.2617829 0.8683254 0.6148289
2.458431 -0.3069104 1.117933
2.441882 -0.2356081 0.9322971
1.730567 -0.2183421 1.752018
1.456134 0.9886666 -2.354194
2.18657 -0.5747166 1.042813
-0.3490425 0.9176415 0.381788
1.235327 0.9713657 -1.247062
0.862008 1.249282 -2.528455
1.316025 0.9419054 -1.196698
1.673508 -0.3675238 1.766711
0.8104885 1.24598 -2.444302
1.06276 1.168764 -2.409518
1.742911 0.8954551 -2.423844
1.36087 0.9218284 -1.302492
1.949494 -0.08368044 1.738954
1.34074 1.067394 -2.887508
-0.3525772 0.9190648 0.3846921
-0.265182 0.8667475 0.4788294
0.8985603 1.246265 -2.596792
1.264142 0.9835945 -2.193299
-0.1600624 0.7958341 0.6245045
1.284433 0.9195859 -2.014664
1.108605 1.067564 -2.563916
1.82901 0.6419055 -1.612218
1.48938 0.7842607 -2.751901
2.80111 -0.06578544 0.1498643
1.246129 0.9460704 -4.062751
1.269461 0.9391121 -4.075418
1.71304 -1.263247 0.9672788
2.145978 -0.1593652 1.252497
2.266618 -0.1883563 1.273093
-0.2789601 0.8690289 0.5756023
2.472483 -0.1605443 1.065424
1.991911 -0.9448029 0.9371987
1.535864 0.8487776 -2.123846
2.00333 -0.1291602 1.700467
2.371829 -0.08088081 0.9125646
2.216505 -0.2074971 0.9226329
1.592739 0.8501832 -2.181122
2.081523 -1.432653 0.1902547
2.651757 -0.47891 0.238594
2.509314 -0.5558815 0.2296216
1.185275 -0.995388 -0.296575
1.332043 0.9245364 -1.887251
1.515312 0.8495241 -2.164437
1.293246 -1.092467 -0.3496584
1.714429 0.7568963 0.188762
1.431492 0.9247419 -2.175275
1.587223 -1.404938 0.9753089
2.013768 -0.151964 1.740922
1.456589 0.9070513 -2.156325
1.719787 -1.350702 0.990436
1.405357 0.8585826 -2.002551
1.405016 0.8588831 -2.047844
1.787248 0.8625238 -2.149644
1.655223 -0.8376555 -0.3092756
2.297496 -0.1535467 1.293775
2.23373 -0.2091869 1.155331
1.860246 -1.250295 0.9413165
2.238851 -0.2067092 1.15174
1.830155 -1.138866 0.9332799
2.103207 -1.168811 0.9542733
1.800897 -0.9606884 0.9100248
1.635414 0.8709689 -2.000354
2.24415 -0.0744599 1.139781
2.299676 -0.2334685 1.04723
2.354978 -0.2399556 1.051982
1.91498 0.5742124 -1.542857
2.275373 -0.4347809 1.020207
1.767485 0.6578938 -1.628068
2.270925 -0.1739707 0.9824473
1.565421 0.7903257 -2.863837
1.636417 0.7220207 -2.602823
2.277498 0.532234 -1.857118
1.559033 0.6781114 -2.667149
2.032663 -1.389638 0.1860329
2.088867 0.4494984 -1.487485
2.260946 0.3975588 -1.589947
1.740934 0.6042588 -2.763755
2.383225 0.2101611 -1.25814
2.340205 -0.5963661 0.2461959
-0.2206719 0.8375896 0.3821831
1.882677 0.577142 -2.551788
2.032626 -1.73778 0.1384325
1.676266 0.6647264 1.621793
1.634263 -1.58969 0.9766638
1.758022 0.6655424 -2.584722
2.377781 -0.2426221 1.322452
2.145251 0.4199765 -1.507239
2.27065 0.6306298 -1.958855
2.19197 -0.5771125 1.032584
-0.2178002 0.8301767 0.6510648
1.911972 0.5713519 -1.715706
2.241796 -0.580857 0.925182
2.370746 -0.9532569 0.475744
1.685037 -1.261564 -1.440191
-0.2556664 0.8558146 0.5562115
2.202022 0.4072323 -0.7921235
-0.2156873 0.8312492 0.6513879
1.835455 0.5604121 -1.644448
-0.242496 0.8437735 0.5510339
1.768327 0.6750833 -1.697532
1.816141 0.3977651 1.58903
1.851735 -0.438912 1.751287
2.164954 0.4040972 -0.3056072
2.019498 -0.1578831 1.739612
2.199072 0.4052425 -0.7512327
2.236665 0.3594815 -1.955728
2.211207 0.4065371 -1.548456
2.177224 0.3928 -0.7629237
2.153322 0.4096971 -0.3068573
2.192966 0.2960173 -0.4132746
2.188859 0.3899927 -0.6910446
2.725738 -0.3208171 0.9876992
2.161278 -0.1141268 1.189388
1.631474 0.7822971 -0.1475199
2.489848 -1.179439 -1.780773
2.228299 0.405206 -0.1655911
-0.1758058 0.807915 0.6612728
1.987928 0.6456834 -0.6176481
1.964267 0.6318536 -1.059007
1.308165 -1.241125 -0.1057406
1.898154 0.1835739 1.720468
1.841908 0.596177 1.511279
1.736675 0.7488388 -1.859911
-0.2414636 0.8445606 0.5518831
-0.2060263 0.8462794 0.7870713
1.477357 -0.8625112 -0.4040533
1.52178 -0.7370159 -0.3031791
1.650916 -0.3425076 2.48436
1.674768 -0.381893 1.83269
1.658891 -0.3785125 1.825975
1.789997 -0.2345938 1.775733
2.018778 0.5290832 -1.004164
1.858648 0.4200074 1.605546
1.758464 -0.2797818 -0.391261
1.985782 0.5249244 -0.987886
2.058123 -0.2604969 1.350675
2.160338 0.4131799 -1.548159
-0.2631052 0.8703981 0.7814738
2.033019 0.4180796 1.676253
2.402405 -1.122902 -1.829118
1.900986 -0.3235767 1.670026
2.260427 0.4022698 -0.8166834
1.903686 -1.29555 0.9411224
1.556692 -0.2945052 2.417494
1.652275 -0.3516358 2.208443
2.932759 -0.08119704 0.1288077
-0.2393938 0.8477702 0.6956359
-0.3632474 0.923211 0.4559811
-0.3652142 0.9232497 0.4574149
1.705964 0.6313821 1.834661
-0.3970647 0.9437337 0.7176861
1.685137 0.6842882 1.684113
-0.3108934 0.8847767 0.5937986
1.900083 0.6114495 -0.9965765
1.984861 0.5702506 1.917411
1.419212 -0.974762 1.742784
1.380108 -0.9470911 1.721102
2.353905 -2.191169 -1.776974
-0.2848698 0.8784305 0.6899238
1.525238 0.7609794 1.822483
-0.3074649 0.8881813 0.4183421
1.822768 0.6139663 1.537471
1.600305 -0.510859 1.779781
1.694306 0.7115418 -0.7258489
1.49844 0.5628203 1.523192
1.609026 0.759508 1.869549
1.790518 0.628547 -0.9471851
1.717425 -0.3905559 1.897865
1.811144 0.7029851 -0.7603745
-0.3497331 0.9130993 0.4965656
-0.3081209 0.8874647 0.4178391
1.78659 0.7109756 -0.7781456
1.680861 -0.6583972 1.886787
1.702855 0.6961145 -0.7097222
1.459406 -0.8468179 -0.3984964
1.840047 0.2147908 1.698468
-0.3648358 0.9222895 0.4551888
-0.3452964 0.9109779 0.5986584
-0.3397716 0.9175435 0.6925687
-0.3455406 0.9124296 0.5987923
-0.2246664 0.8437284 0.7795259
-0.3964003 0.9431024 0.7184455
-0.3261473 0.8972197 0.5133999
1.8156 0.4955295 -0.3891495
1.869429 0.6132832 -0.9851161
-0.3487744 0.9135956 0.5796543
-0.3423426 0.9123145 0.599171
1.912067 -0.05686051 1.725883
-0.3492241 0.9141015 0.4964039
1.913237 -0.05664187 1.724537
1.999513 0.485307 1.506766
-0.237324 0.8475373 0.822313
-0.321553 0.9016663 0.7352316
2.116813 0.4014611 1.71071
-0.1975585 0.8205284 0.4583744
2.049036 0.4449707 1.462877
-0.3789027 0.9304803 0.610077
1.78265 0.6068529 -0.9143153
-0.3985571 0.9438383 0.4745135
2.026047 0.5276755 -1.013577
2.137279 0.4834706 -0.4435789
1.959951 0.5511113 -0.6537427
1.653193 -1.259743 0.9687535
2.101591 -0.2737831 1.359268
2.002579 0.5282302 -1.000682
1.716393 -1.300703 0.9762844
2.407596 0.3492796 -0.9035847
1.681992 -0.5173198 1.785272
2.170569 -0.1790951 1.024624
-0.4372054 0.9633686 0.6379412
1.599615 -0.3503562 1.794469
2.091331 -0.7979513 0.9485827
1.740702 -0.9778345 1.319496
1.976898 -1.356609 0.1986777
2.065551 -1.426027 0.1970536
2.054222 -1.398513 0.1691033
2.479685 -0.1293957 -1.487753
2.393587 0.2447314 -1.801173
1.648636 -0.4994278 1.792732
-0.3235314 0.8959016 0.6499933
2.59557 -0.4169691 0.1911705
2.212802 -0.1798671 1.15318
2.159144 0.4391972 -0.2038775
2.14358 0.4244609 -0.1476175
2.098743 0.4736601 -0.5752165
2.151432 0.4217339 -0.1522721
2.185577 0.4249288 -0.1690901
2.365788 0.4012501 -0.8377866
2.150716 0.4227648 -0.156308
2.166666 0.4360372 -0.1974587
2.159234 0.4204647 -0.3192315
2.236727 0.4030284 -0.8031464
2.214573 0.4256586 -0.1824058
2.143858 -0.1629644 1.234872
2.173934 0.419136 -0.170277
2.107018 0.4312229 -0.8298295
2.24324 0.4016829 -0.8229079
2.210407 0.4039243 -0.8107088
2.027646 -0.5014213 1.381535
2.182393 0.4174302 -0.1768297
2.069718 0.4218274 -0.7060411
2.314458 0.275904 -0.4715313
2.169529 0.2854562 -0.4289787
2.253709 0.3957263 -0.7342156
2.139367 0.4276925 -1.491221
2.322805 0.2623355 -0.485294
2.205566 -0.4053406 1.018095
2.089369 -0.1585243 1.278837
2.304676 0.2463741 -0.4895435
2.206758 -0.1962794 1.050414
2.132455 0.4297709 -1.489671
2.32676 0.3404675 -1.841464
2.509035 -0.4136901 0.2579568
2.612323 -0.1988775 -1.592878
2.858176 -0.05707454 0.1376302
2.636739 -0.01196661 0.1665697
2.784297 -0.04237775 0.1460991
1.778924 -0.417147 2.27688
-0.284253 0.8775821 0.3095729
2.30719 -0.2398896 0.9359366
2.322563 -0.4444092 0.9109914
-0.3768838 0.9300034 0.6110921
2.500032 -0.1457532 -1.508817
1.607562 -0.3303432 2.181279
1.702382 -0.1981279 1.742987
1.899278 -0.8043953 -1.415881
1.882383 -0.7819871 -1.395132
2.000753 -0.8733879 -1.504382
2.186671 -0.08143546 1.347888
-0.2468217 0.8587598 0.7927015
1.015323 0.4430328 -0.5832372
-0.2541587 0.853512 0.7891808
0.2146731 0.7839077 1.04683
-0.2850077 1.0168 0.7697324
2.104042 -0.6280247 0.9456078
2.121913 -0.1110589 1.256457
2.178839 -0.5789737 1.018114
2.394498 -0.08389117 -1.424672
2.507415 0.1565629 -1.363855
2.078872 -0.4943955 1.533056
2.088582 -0.5096151 1.016425
2.087646 -0.5271985 1.050595
1.940084 -0.7701631 -1.423676
2.559209 -1.272241 -2.069956
2.970264 -1.961771 -2.987654
3.268676 -0.8300106 -3.283421
2.996805 -2.097178 -3.087846
1.796367 -1.017571 0.7124994
-0.3470684 0.9154016 0.691407
-0.2339935 0.8390864 0.6028733
-0.4682176 0.8679246 0.5766786
-0.2562748 0.8551536 0.7886654
-0.142022 0.7830219 0.4623752
-0.1366026 0.7822405 0.4611528
-0.44371 0.8627304 0.546189
-0.06532434 0.7377241 0.5610419
1.934846 -0.1660955 1.755176
2.034893 0.06539489 1.717676
-0.4776968 0.8728841 0.5937241
2.121016 -0.2025676 0.8899904
1.539605 -0.5084367 1.792854
2.074666 -0.8044596 0.9080973
2.335218 -0.6209077 0.9323697
2.397233 0.1925705 -1.299036
2.201065 -1.438175 0.1799045
-0.2587296 0.8556532 0.7869217
2.182363 -1.386319 0.1665559
2.356917 -0.6759526 0.4236943
2.311237 -0.6149474 0.9311938
2.931543 -2.060112 -3.008192
3.092091 -1.547124 -2.907948
1.019934 0.5747126 -3.730722
1.494256 -0.1896113 -3.979244
2.198779 -0.5504014 0.949165
1.930022 -0.4211012 1.621932
0.03090609 0.5823185 -4.8996
1.730431 0.2923976 -3.98995
1.914401 -0.395012 -3.72517
2.243933 -0.7461343 -3.563937
1.752746 0.6703393 -2.876461
1.85358 0.5736072 1.039214
-0.2089527 0.0164699 -4.696976
1.303611 0.8813744 -3.972872
0.7672291 0.3591516 -4.366482
1.706165 0.6317799 -4.071151
0.991375 0.02843503 -4.210917
0.03396977 0.03535151 -4.609168
1.138175 0.1127034 -4.12501
0.03674067 0.04172237 -4.628409
2.299945 0.3202234 -1.854273
1.726925 0.6567602 1.74687
1.140378 0.08955626 -4.194423
2.218447 -0.06983067 1.243544
2.237817 -0.744871 -3.569727
1.085195 0.268359 4.400488
1.352514 0.8934835 -4.137095
1.513756 -0.1613506 -3.971662
1.004952 1.150527 -1.540815
1.754418 0.1326787 -3.953232
2.220833 0.1040282 -3.788963
1.366319 0.803799 2.098996
2.288892 -0.241583 1.028055
1.336946 0.8992069 -4.118103
2.096603 0.4828991 -2.803629
2.0551 0.4662005 -2.701373
0.3558591 1.445484 -3.02588
0.0389461 0.5731852 -4.781739
1.607894 0.7649975 -1.291115
1.22573 1.000925 -2.620488
0.8716124 1.240926 -2.579515
1.485062 0.9147823 -4.477944
2.308675 0.3213499 -1.869034
1.85756 -0.7664719 -3.713756
0.06210096 0.5338736 -4.418447
2.26317 -0.7019659 -3.582657
1.956369 -1.177803 -3.592033
0.1630102 0.3465067 -4.742703
1.430256 0.4680624 -4.095267
-1.214572 2.505883 -5.180853
1.294445 0.426323 -4.196463
0.5392289 1.217991 -3.319544
0.5361283 1.250895 -3.361975
-1.936499 1.885595 -3.744434
0.274388 0.4342891 -4.598867
-1.686048 2.151393 -3.47461
-0.2239577 0.8312851 -3.430656
0.8607106 1.229808 -2.547817
0.8177966 0.9805283 -0.2847334
1.266479 0.1325251 -4.992297
1.959768 -0.3965016 -3.815915
1.264308 0.992222 -2.676569
1.914603 -0.3646168 -3.772653
1.315575 0.932592 -4.181159
0.8985968 1.086229 -4.46011
2.34801 0.2832404 -2.584144
2.615498 -0.7673325 -3.398892
1.422386 0.1800249 -4.349473
0.4082181 -0.2361506 -4.400103
0.04490867 0.04443079 -4.542011
-1.438563 2.427723 -5.378129
1.071531 0.8293458 -4.371992
0.04792568 0.5573117 -4.565377
-1.703673 2.5149 -2.907955
1.744329 0.1067604 -3.958088
-1.584358 2.064785 -3.316067
-1.926511 1.878025 -3.713452
-1.815377 2.662881 -3.119099
-1.720307 2.518645 -2.928726
-0.5967385 2.085394 -4.34762
-0.0587736 0.9247859 -3.157224
1.317842 -0.4764188 -3.978471
-0.215076 0.008483556 -4.721315
-2.575334 1.242816 -5.545763
-1.660162 1.461646 -5.152305
-2.572636 1.238654 -5.515183
-1.219197 2.51736 -4.916224
0.0308906 0.03837238 -4.598071
-0.05111432 1.671224 -2.719989
-1.450608 2.410744 -5.28059
1.73915 -0.3365874 -3.838369
0.739944 0.3557525 -4.304013
-1.932072 1.884563 -3.735754
0.5338839 -0.00950416 -4.393767
-1.288002 2.572537 -3.574645
2.357173 0.2897135 -2.605678
-1.956581 1.930611 -3.784193
0.8988285 1.091735 -4.468208
-3.373866 2.644476 -3.563994
-3.187136 1.290856 -5.566972
0.9309514 -0.2335479 -4.178004
0.2174899 -0.518311 -4.428409
0.985547 0.0230848 -4.19962
-1.932448 1.879837 -3.733689
0.8668459 0.2109165 -4.343956
1.132506 0.6736687 -4.43927
-1.903779 1.883987 -3.695156
0.7144945 0.8076569 -4.519881
-0.1144625 -0.1904354 -4.619642
-1.757313 2.13033 -3.673706
0.771044 0.3642088 -4.374676
-1.731344 2.576596 -3.007022
1.370842 0.1630927 -4.082609
0.04415657 0.5307924 -4.383651
-1.298651 2.601634 -3.608043
-1.681856 2.515676 -2.924927
0.5452098 0.003300858 -4.342222
2.481064 0.2494455 -3.139578
-2.568237 1.233907 -5.532257
-1.710075 2.558604 -2.98481
1.376114 0.8905959 -0.8515198
2.474514 -0.3784963 -3.595908
-0.2150413 0.01501254 -4.716112
-1.390585 2.726475 -5.308702
0.367393 1.551371 -2.002838
0.1107925 1.632013 -2.98647
0.7053506 1.33145 -1.621642
-1.291563 2.596356 -3.597081
-1.775432 1.492567 -5.294391
-3.114884 1.563161 -5.869887
0.03292728 0.5407849 -4.499019
-1.440024 2.411221 -5.291087
-1.986616 1.964411 -5.230772
-1.497313 2.493345 -5.527977
2.005173 -0.237624 -3.775282
-3.449726 2.708946 -3.653581
0.8889686 1.071559 -4.39212
0.9964985 0.6107867 -4.360013
0.719324 0.3384024 -3.992865
0.8928794 -0.2839815 -4.218553
0.8164778 -0.429682 -4.204228
1.13324 0.09404309 -4.166978
1.828812 0.4119898 -4.024244
-1.478835 2.926571 -4.154913
-2.153259 3.237534 -5.830417
-2.71854 1.391265 -5.14236
1.736345 0.6791753 -1.643134
1.707524 0.6928098 -1.6901
-0.1050839 1.710912 -2.900316
1.917668 -0.728476 -3.713567
-1.146557 2.506169 -4.904043
-1.681592 2.14503 -3.464892
-0.1157513 -0.1912138 -4.609204
-2.117953 2.074185 -5.576039
-2.776797 1.420335 -5.224411
0.1718798 -0.1743748 -4.507797
0.3057927 0.4473101 -4.623501
1.698286 0.1393 -3.970782
0.164864 0.3523239 -4.741162
1.014378 -0.08984533 -4.140697
1.826852 0.5827939 -4.173213
2.931457 -1.434404 -3.012935
2.204996 0.3934667 -1.676327
-1.664038 2.621796 -5.533339
-1.227832 2.47666 -5.409779
0.142998 0.3364424 -4.77979
-2.054439 2.016421 -5.376603
-1.021689 2.279651 -4.385262
-1.42147 2.333977 -4.915594
1.310023 0.9352239 -4.195152
0.9870068 0.02894645 -4.199616
-1.953681 2.644929 -5.112178
1.725711 0.633699 -4.095216
0.8884633 1.076913 -4.427826
3.167032 -0.2096316 -2.944562
3.178905 -0.2141016 -2.948447
1.7363 1.254279 1.678296
2.851437 -0.7582464 -3.322639
1.489024 0.4840474 -4.267548
0.8668911 1.129285 -3.294053
-0.9058176 1.128342 3.159369
1.382432 -0.2124833 1.865442
2.172324 0.3995138 -0.6746967
2.356318 0.2545656 1.407432
1.399194 -0.2368054 2.095711
0.7919589 -0.3592559 2.482024
1.133907 0.7956052 2.932044
-0.6467285 0.9618247 3.029419
1.465659 -0.2875947 2.316643
-1.117754 1.281216 2.234854
1.081927 -0.08991266 2.654225
-1.646834 1.583125 3.948449
0.8568618 0.05240824 2.236604
1.073847 -0.09716811 2.627831
0.8195266 -0.4859185 3.029644
1.112963 0.7890365 2.802891
-0.6024049 0.9414896 2.67797
-0.3353862 0.7284116 3.13904
-1.28879 1.38417 2.745402
-0.6410801 0.9508491 3.743996
0.8471772 0.06658227 2.208342
1.00706 -0.03563261 2.278318
-0.7328323 1.008867 3.094156
1.141307 -0.1641372 3.26441
-0.9692252 0.6859989 3.450073
-0.5269434 0.8763708 2.805671
-3.249362 2.293649 1.789317
-1.633444 1.67912 1.6836
-1.007077 0.6323635 3.584976
1.361973 0.7656576 2.371988
-1.712878 1.103417 1.912657
-1.522873 1.09982 2.699567
-0.6584827 0.9766262 2.880689
-1.690815 1.313918 1.852552
-1.345158 1.416966 2.769132
-0.8977154 0.6858108 3.139578
0.8480461 -0.4902475 3.260316
-1.403643 1.437481 2.8914
-0.6996223 0.9582989 3.365527
-1.399625 1.422141 2.866441
-0.514187 0.7853851 4.024988
-1.795068 1.151368 2.087242
-0.5682664 0.3054563 4.177806
-1.375959 1.432552 2.827814
0.3561211 1.450431 -3.013127
-0.8261443 0.6016148 -3.395027
-0.240797 0.9458475 -2.764021
-0.8723682 0.8304701 -3.87028
0.4879809 -0.8907152 -4.115981
-0.3718815 -0.5610732 -4.653074
0.5106221 -0.8272395 -4.118559
2.460176 -0.7888591 -3.131217
0.4814815 -0.903846 -4.115738
0.4898153 -0.908036 -4.118363
2.81262 -0.9613661 -1.623505
2.481814 -2.250949 -2.572226
2.014912 -0.3127029 -2.896912
3.319542 -1.110123 -1.403866
2.835308 -0.9706531 -1.719247
2.83732 -0.9814347 -1.613178
2.835057 -0.9805643 -1.718015
2.490244 -2.248919 -2.579049
0.8850372 -1.256891 -3.749747
1.439641 -2.058942 -1.658159
2.167001 -1.375735 -1.15781
1.641254 -1.657468 -1.775943
0.8647226 -0.1939612 -0.5248306
0.2631355 1.240119 4.447429
1.005301 0.8675042 1.816799
0.5769179 0.1583157 2.639409
1.214724 0.06969601 1.943951
-0.09871694 1.036824 4.474666
0.685944 0.04832157 2.536744
0.5699386 0.1092708 2.52879
0.605107 0.07878334 2.33193
1.2761 0.2589913 1.849832
0.6696446 0.05911679 2.479205
-0.4624141 0.6222931 4.163985
0.3773235 0.3701493 3.287673
0.7804356 -0.3427812 1.944554
1.525226 -0.2263497 1.060645
0.5437203 0.1130355 2.481406
0.7254897 -0.002128915 2.271857
-0.4195808 0.7172499 4.297067
0.002274042 0.7544686 4.001048
-0.1123676 1.029286 4.341156
0.2826283 1.276127 4.625525
-0.3171441 0.8037866 4.33661
-1.123199 1.045407 4.097926
0.863519 -0.03574048 2.196479
0.2894367 1.19325 5.398789
-0.3254005 0.7813245 4.143316
0.375527 1.356954 3.650166
1.022734 -0.08587903 1.958409
-0.3324236 0.7631758 3.970673
0.3833952 1.370571 3.702949
-0.6601353 0.4407962 4.229256
-0.4119264 0.7117033 4.322791
-0.1314463 1.027958 4.222089
-0.2711681 0.8794519 4.129912
-0.4211028 0.7091331 4.142807
-0.6833329 0.3630858 4.269215
-0.2616014 -0.08428818 3.631843
-0.4382389 0.7710232 4.376127
-1.499879 2.009679 3.531254
-0.1146028 0.9719852 4.083038
0.2503403 1.241818 4.418883
-0.6842337 0.3725468 4.186897
-0.7509568 1.321707 3.910539
0.9014978 0.9601033 1.643519
0.2301828 1.213387 4.248476
0.4412436 1.460552 4.007133
-0.2837478 1.174802 3.940254
-0.5228741 1.311593 3.800719
-0.2806793 1.166886 3.942323
-0.843926 1.077272 4.028203
-0.2938774 1.135388 3.840522
-0.3847871 1.228618 3.909587
-0.3834204 1.241638 3.929458
-0.2866126 1.364298 4.283032
-0.1823409 0.3558821 4.112707
-0.323446 0.9943026 3.546289
1.402049 0.7761402 3.198357
-0.4216752 1.370856 4.114672
2.9938 -0.3012621 4.927147
0.8641942 -0.5177875 2.36104
1.158648 0.1141593 -4.180221
1.203826 -1.57019 -3.840145
0.5490617 -1.15047 -4.138535
1.794909 0.669601 -0.1626285
1.609294 0.7836396 -2.876598
2.244039 -0.1611121 -1.363547
1.291587 0.3076068 -4.167209
2.402561 0.1778937 1.012622
2.46854 -0.7445657 0.1861673
0.8219168 -0.4232092 -4.190156
0.53062 -0.8981518 -4.222704
1.59569 0.7710913 -2.871895
0.4888806 -1.135699 -4.184426
2.249457 -0.1639182 -1.369018
1.116902 -0.8848847 -3.991368
1.426155 -1.617323 -3.705027
1.678542 -2.034846 -3.536976
1.292001 0.3381369 -4.166183
1.577831 0.7850367 -2.852689
0.9009193 -1.136164 -4.006314
1.779835 0.626246 0.5961424
2.380052 -0.08285158 0.9010855
0.7710145 0.3660109 -4.374643
1.932332 -0.387791 -3.766117
2.613009 -2.419127 -2.898833
0.7521087 0.3634915 -4.346394
1.284599 -1.768547 -3.719492
3.123497 -1.543867 -2.996991
2.895661 -0.08879793 0.1380054
2.375256 0.3123071 -2.431674
1.807762 0.4107033 -3.987706
1.90818 0.5950016 -2.929729
2.582635 -2.408179 -2.873235
1.995941 0.5280532 -2.728547
1.922923 0.5684473 -1.720139
1.952286 -1.19687 -3.598682
3.076574 -0.151343 -3.33912
2.266916 0.3229653 -2.061711
1.525533 -0.3039152 -3.93539
2.203918 0.2795211 -0.4136993
2.072944 -1.794605 -0.6300827
1.144537 0.1247304 -4.151756
1.939661 0.6771526 -1.689949
2.179927 0.2612788 -0.4214086
1.896361 0.589452 -2.920491
1.781323 0.4087169 -3.957453
2.206909 0.2900855 -0.4103852
1.743345 0.4244379 -4.001415
2.885662 -0.08232041 0.1423698
1.544898 -0.9734154 -3.785072
2.806506 -0.01252827 -3.452095
3.304482 -0.2222142 -3.444464
2.208534 0.3228656 -2.008019
3.133793 -2.311244 -3.251753
1.077807 0.8325796 -4.389446
2.26877 0.1402203 -3.823141
1.519353 -0.1576955 -3.953804
0.3510076 -0.2374439 -4.338509
2.284975 0.3230863 -2.27497
1.923086 0.5950623 -2.973606
1.091571 0.8417593 -4.378915
1.931303 0.4017642 -0.6783009
2.518057 0.2034273 -1.775046
1.81243 0.5958209 0.7585342
1.431201 0.4683654 -4.129007
1.92792 0.5609123 -1.611267
2.196943 -0.7896332 -3.580027
1.56846 -0.9429567 -3.785099
0.3592746 -0.2437321 -4.354702
1.684778 -2.037946 -3.548682
2.206515 0.393003 -0.7770841
2.160951 0.3375183 -2.245303
2.508152 -2.369211 -3.108138
2.005993 0.5136594 -2.732852
2.350513 0.3135576 -2.44298
1.130832 0.09480394 -4.154395
0.8094719 -0.4198174 -4.176569
1.550764 -0.9692222 -3.780612
1.288279 0.3354142 -4.163308
2.248847 0.1283588 -3.796923
2.073348 -1.802473 -0.6328561
1.929082 0.5650724 -1.719315
2.319783 -1.112737 -3.478916
1.287142 0.322324 -4.162802
2.579197 -0.1095635 -3.619113
1.597687 0.7623395 -2.868506
1.12347 0.09239227 -4.140909
1.425652 -1.189701 -3.786768
0.9139158 1.084131 -4.484951
3.786694 -0.6634023 -3.0536
2.059948 -1.8176 -0.6515756
1.9012 0.6533546 -2.675344
2.496985 -1.875059 -1.99217
0.4913877 -1.143227 -4.176021
0.5651239 -1.134528 -4.142402
0.5192187 -0.9320788 -4.21864
3.261048 -1.608039 -3.093323
1.430133 -1.172985 -3.79693
1.203403 -0.6541791 -3.990431
2.722649 -1.993251 -2.46345
0.2174629 -0.8120323 -4.352142
3.795791 -0.670396 -3.055921
2.631194 -2.411673 -2.933505
0.2155993 -0.8119034 -4.352242
1.493217 0.8579196 -2.083599
1.47407 0.1090078 -4.037254
1.198236 -0.662469 -3.993037
2.463547 0.1708315 0.8692619
2.222958 -2.42435 -1.98605
2.201254 0.3927133 -0.7578371
2.319281 -2.173671 -1.96628
1.24908 -1.465908 -3.805471
3.235397 -1.61634 -3.069118
1.199718 -0.6648515 -4.002182
0.8324053 -0.417082 -4.196262
1.921395 0.5634627 -2.584553
1.243378 -1.521833 -3.812211
2.522914 -2.351776 -3.055469
1.100234 0.8437678 -4.382422
2.44395 -0.9491103 -3.427322
2.231804 0.1206195 -3.786104
0.5212039 -0.9263476 -4.217304
0.9036056 -1.186273 -4.031344
2.200825 -2.410836 -1.974046
1.571018 -1.803282 -3.614712
0.8719569 -1.176206 -4.003071
0.7636657 1.075 -4.153907
2.216537 0.1116139 -3.786039
0.8891006 -0.6147881 -4.122643
1.543139 -0.9708722 -3.780628
1.511267 -1.292707 -3.958623
2.07898 0.4575894 -2.19512
2.304906 -1.078617 -3.482295
0.8199272 -0.4273755 -4.204827
1.233504 -1.513519 -3.817627
0.7613604 0.3695131 -4.353817
2.150018 0.4278188 -0.872306
2.818495 -2.906912 -2.774157
1.833589 0.3489884 -3.832531
2.883747 -0.08103497 0.1439962
1.255683 -1.743068 -3.741289
0.4380813 0.1496039 -4.444211
1.886845 0.5245264 0.04908902
2.991841 -1.546433 -2.462415
2.075076 0.4658093 -0.4492753
2.089629 -2.362147 -1.202719
2.488799 0.2011936 -1.3256
2.327176 0.3183074 -2.115869
1.921463 -0.36932 -3.775783
2.080575 -2.329791 -1.190057
0.8974339 -1.145627 -4.006929
1.228687 0.9669484 -3.939002
0.3963639 -1.175948 -4.170934
1.689837 -0.7447258 -3.780643
0.6666411 -0.5976617 -4.231843
0.6608785 -0.5839404 -4.209451
2.134115 -2.417153 -1.271477
2.452289 0.2550946 -1.982804
1.157378 0.09153157 -4.196205
1.286296 0.3348091 -4.152946
2.703371 -1.992082 -2.470684
1.997927 -2.621001 -1.295927
3.239071 -0.3959754 -1.987161
1.3169 0.9330414 -4.183613
1.881159 -0.3695282 -3.7322
2.360975 0.2938671 -2.626584
2.515296 -2.369667 -3.097974
2.21641 -2.418295 -1.971607
0.4057618 -0.1934445 -4.371728
0.9902762 0.03703555 -4.215124
0.9335776 0.04185991 -4.097367
0.8423653 -0.4120403 -4.19057
1.504789 -0.1640512 -3.963399
0.9946818 0.02762879 -4.209076
2.806782 -2.898769 -2.766058
2.261458 -0.7251257 -3.587806
1.69633 -2.0306 -3.562105
1.375652 -1.25341 -3.803328
1.955897 -1.190211 -3.591963
2.696284 -0.1998065 -3.457016
2.278066 0.1932222 -3.793001
1.115577 -0.8901947 -3.971128
2.997928 -0.6168031 -3.296608
1.33965 0.9279665 -4.213688
2.345401 0.3164551 -2.453533
2.034126 -1.406056 -3.513458
2.511014 -1.886083 -1.998455
1.65542 0.2395014 -4.053165
0.5128811 -0.007043495 -4.354501
1.693383 0.07250734 -4.017177
1.689693 -0.7425672 -3.778758
1.190654 -1.558472 -3.816617
2.760784 -2.078004 -3.122446
0.7526994 0.3674382 -4.333713
1.880103 0.5720605 -1.580593
2.002508 -2.626215 -1.298157
1.70175 0.7092192 -2.660766
2.095937 -2.387542 -1.253702
2.99453 -1.568008 -2.453533
0.3833046 -0.2505949 -4.39184
2.058656 -1.820901 -0.6454502
0.6209499 -1.350094 -4.082006
0.963846 0.04002746 -4.156633
1.691105 0.6091419 -4.065525
1.442804 0.571592 -4.174534
2.520993 -2.376883 -3.101653
2.062295 0.5237291 0.08124574
0.7533321 -1.432961 -4.026464
2.961173 -2.059932 -3.041262
-0.02892151 -0.6978598 -4.321728
2.916346 -0.03816349 -3.509698
1.947019 0.5742619 -2.615393
1.900766 0.5939488 -2.913774
2.186699 0.4180856 -0.8610848
2.406992 0.3339095 -2.438476
2.472663 0.2593801 -3.172149
0.4890004 0.01023508 -4.270977
2.197475 0.3700604 -1.750861
1.477601 0.8226967 -1.144606
0.5031888 -1.193869 -4.16807
1.324751 0.9591244 -2.718846
1.738883 0.418122 -3.995719
0.07949463 -0.7366195 -4.415411
2.064892 -1.777758 -0.632879
1.019975 -0.09420262 -4.177061
1.067533 0.8319695 -4.366026
2.010322 -1.412449 -3.485088
2.555735 -0.1077571 -3.613721
1.689071 -0.7498333 -3.781803
2.188227 0.4089862 -1.542634
1.074882 0.830397 -4.371312
1.672674 -1.790789 -3.621457
0.492799 -1.198126 -4.180344
3.216718 -1.602774 -3.061827
2.707596 -1.980445 -2.446248
1.006054 1.170621 -2.362325
2.338385 -2.190065 -1.976473
0.2762026 -0.4258661 -4.429316
3.326456 -0.4082661 -1.934039
1.259324 0.9754604 -1.411792
1.633922 0.07309836 -3.945158
2.242713 -0.7631063 -3.576943
0.2687444 -0.4277509 -4.400537
1.741958 0.05436951 -4.067666
0.9290681 1.219677 -1.606555
3.601142 -0.5409911 -2.497051
3.682536 -0.5949239 -3.046065
3.734133 -0.5925185 -2.772887
0.6612796 -0.611741 -4.248137
2.172013 0.4116597 -1.532654
1.712666 -0.5990793 -3.813161
2.476649 0.2331791 -2.755672
1.248008 0.9890479 -1.247184
2.822432 -1.482919 -1.956519
3.285848 -1.034147 -1.787961
2.64096 -1.682563 -2.010364
3.678127 -0.5477407 -2.496645
3.23203 -1.018628 -1.799596
3.07689 -1.053954 -1.274348
1.79275 -0.903871 -3.705513
0.527971 -0.00940926 -4.402999
3.197223 -1.478905 -3.077089
3.003915 -1.072494 -1.219874
3.379237 -0.4293782 -1.957611
3.21327 -1.098806 -1.227159
0.5305541 -0.8964235 -4.207235
0.5082053 -0.004075096 -4.356438
0.4563228 -0.1357437 -4.429028
1.130215 0.9230129 -4.376112
2.578858 -2.416705 -2.870486
0.9769835 -0.3565314 -4.146348
0.9753496 -0.3688234 -4.143528
1.129728 -0.8991575 -4.000389
3.494002 -0.4316814 -2.047161
2.962765 -0.1792139 -3.058832
2.8495 -1.026682 -1.272615
1.504462 0.8452107 -1.20582
3.554192 -0.4390711 -2.045182
3.267514 -0.9642383 -1.841579
2.573575 -0.9075744 -1.639668
2.444954 -0.9487411 -3.426963
3.376002 -1.082072 -1.275154
0.9985996 0.6033369 -4.351504
0.9084934 -1.160486 -4.038182
1.323035 0.3773014 -4.185983
2.873756 -1.039333 -1.264032
1.431514 -1.62693 -3.712663
1.716913 0.7531276 -3.018932
2.869213 -1.800735 -2.08909
1.5293 -0.3094938 -3.938661
1.188914 -1.561327 -3.819136
2.237379 0.1263182 -3.783585
1.606112 0.6522096 -4.125842
0.6652601 -0.6034119 -4.235488
1.621488 -0.560761 -3.842694
0.4153339 -0.1841958 -4.382378
0.9699672 -0.3679676 -4.141659
1.81021 0.4124772 -3.997344
0.275501 -0.4333294 -4.422123
0.693901 -0.3435831 -4.280496
2.163182 -1.151265 -3.513429
2.526918 -1.895448 -1.992821
2.30842 -1.013064 -3.451189
1.175371 -0.6037319 -4.01716
1.73254 0.6396046 -4.145513
1.183665 -0.4990498 -4.034977
1.580893 -1.561231 -3.651418
2.72328 -2.046124 -3.106216
1.568249 -0.1413644 -3.955665
1.114482 0.1020918 -4.122944
1.267855 0.9820079 -1.270783
1.42891 0.8831313 -1.984068
2.710783 -2.001634 -2.493872
2.529712 -1.891735 -2.00523
3.018845 -0.626168 -3.310238
0.8919864 -0.4208471 -4.187485
3.416043 -0.4166168 -1.955157
2.329069 0.3242761 -2.072567
1.022548 -0.09678715 -4.190548
1.471852 -0.3673996 -4.094244
1.291773 0.9654542 -4.089767
2.655641 -1.408372 -1.883329
0.96351 -0.8399917 -4.061532
1.907479 -0.7143115 -3.690789
1.809099 -1.416654 -3.594444
2.798888 -1.510974 -1.924636
0.00845584 -0.5329024 -4.450005
1.644203 0.7208346 -1.753886
2.993686 -1.054213 -3.241989
0.7511063 0.17027 -4.363992
0.948552 1.185303 -1.510842
0.7312777 0.006018067 -4.315901
0.6420873 -0.7168987 -4.20825
1.520002 -0.158258 -3.963851
2.969302 -2.081362 -3.049768
1.664511 0.7751929 -2.991727
1.657661 0.7640768 -2.794285
2.93644 -1.42095 -1.982518
1.386409 0.9152599 -2.633455
2.573313 -0.1107571 -3.617742
1.404128 -0.3414927 -3.993556
1.632003 0.7680842 -2.96453
2.062085 0.5098849 -2.799663
1.6042 0.7668893 -1.783245
1.907698 0.5840948 -1.52369
3.827714 -0.6672052 -3.059499
1.618168 0.7404258 -1.762275
2.764832 -1.353978 -1.986261
3.679312 -0.8592985 -3.009427
2.499369 0.250544 -3.167759
1.450644 -1.358373 -1.314068
2.784395 -1.113422 -3.258977
3.489958 -0.547691 -1.754856
1.87729 0.4906226 0.8424369
1.329377 0.9326389 0.5304437
1.202887 0.9603182 1.789308
3.298236 -0.9954745 -1.837132
-3.171448 2.712136 2.624631
-2.268309 2.806037 2.655863
-1.388508 1.540091 4.325484
1.155136 0.3828405 4.40362
-2.063285 0.7801877 2.594439
-1.634571 1.075957 2.073214
-2.071794 3.429177 1.040535
0.1365118 -0.7067122 3.579657
-3.836321 3.880238 1.069009
-3.451989 2.107236 2.329239
-4.964347 3.164493 1.574418
-3.951082 3.160087 2.213494
0.7587625 1.082638 2.257671
-1.053733 1.626938 2.053877
-3.754385 3.033725 2.012199
1.106538 0.8906526 1.484405
-1.978053 3.277253 0.8707495
-1.215556 1.305295 3.227354
0.2409318 -0.9115214 5.273417
1.148583 0.5879753 3.127813
-5.047736 3.216168 1.651422
-1.349913 1.472976 2.173964
-5.122328 3.387002 1.299167
-2.917433 2.482908 2.153571
-3.011954 2.550221 2.298925
-0.7045674 0.5400297 3.351886
-0.4651152 0.8723589 3.882379
0.01642382 1.054222 0.1048248
-0.4317724 0.8090677 3.196403
-1.873163 3.098784 0.6567588
-3.120871 2.578141 1.212669
-1.765741 1.467085 2.340057
-1.152926 1.312357 2.998734
-0.700691 0.5288738 3.376307
-1.035465 1.608929 2.021834
-2.301973 2.848884 2.730851
-2.134717 1.101246 2.564034
-5.601889 3.312114 1.715202
-2.392042 2.940769 2.930801
0.8468443 1.128064 2.5961
0.3106439 1.253633 -0.04541209
-5.071599 3.22944 1.66427
-0.4362543 0.8093569 3.387104
0.7053487 -0.01589007 4.634048
-2.166427 0.7953033 2.833613
-4.282814 2.434518 3.561316
-0.7412099 0.5849271 3.95911
-1.064089 1.672617 2.20224
-0.3098277 1.325066 0.03078626
1.154099 0.3800608 4.429778
-1.281452 1.359248 3.566894
1.203567 0.3936373 4.690574
1.191572 0.9449255 1.759183
-1.163647 1.304483 3.036502
0.1535738 -0.699275 3.489581
-0.188219 1.124364 0.1585479
-4.305353 2.62119 3.521366
0.1991358 -0.842865 4.351881
-2.026304 1.32047 2.670209
-0.6739923 0.9342308 3.750747
-0.4486228 0.9177558 4.998532
-1.162691 1.300576 3.01769
-4.644995 3.524284 1.831137
-0.4253404 0.6841163 3.89043
-4.864078 3.645813 0.8681047
-2.09813 1.216152 2.877155
-0.6976312 0.3946449 3.850927
-5.55241 3.10553 1.703444
-1.466131 1.462103 2.816279
-5.602623 3.310374 1.836806
-4.33492 3.649322 0.3034716
-3.273795 3.335852 -0.4415537
-0.4292136 0.676843 3.808255
-3.703191 3.538985 0.1911408
-5.086268 3.705438 1.587244
-5.242902 3.457043 1.350237
-3.335315 3.393598 -0.3953449
-4.409592 3.667145 0.668373
-3.882568 3.919701 1.127424
-3.754724 3.128637 2.984798
-3.813118 3.854786 0.6832452
-4.88297 2.88158 1.84465
-4.885159 3.98757 0.9965948
-3.619409 3.983736 1.636162
-5.418536 3.286502 1.21963
